# .PCD v0.7 - Point Cloud Data file format
VERSION 0.7
FIELDS x y z rgb
SIZE 4 4 4 4
TYPE F F F U
COUNT 1 1 1 1
WIDTH 1132
HEIGHT 1
VIEWPOINT 0 0 0 1 0 0 0
POINTS 1132
DATA ascii
1.2059978 0.86819398 0.10912492 4294966016
1.2078891 0.86556089 0.10912492 4294966016
1.2097745 0.86292374 0.10912492 4294966016
1.2116542 0.86028218 0.10912492 4294966016
1.2135282 0.85763681 0.10912492 4294966016
1.2153964 0.85498726 0.10912492 4294966016
1.2172588 0.85233361 0.10912492 4294966016
1.2191154 0.84967589 0.10912492 4294966016
1.2209661 0.84701431 0.10912492 4294966016
1.2228112 0.84434855 0.10912492 4294966016
1.2246503 0.84167862 0.10912492 4294966016
1.2264837 0.83900493 0.10912492 4294966016
1.2283112 0.8363272 0.10912492 4294966016
1.2301328 0.83364546 0.10912492 4294966016
1.2319486 0.83095962 0.10912492 4294966016
1.2337587 0.82827008 0.10912492 4294966016
1.2355627 0.82557654 0.10912492 4294966016
1.2373608 0.8228789 0.10912492 4294966016
1.2391531 0.8201775 0.10912492 4294966016
1.2409396 0.8174721 0.10912492 4294966016
1.24272 0.81476271 0.10912492 4294966016
1.2444947 0.81204975 0.10912492 4294966016
1.2462631 0.80933267 0.10912492 4294966016
1.248026 0.8066119 0.10912492 4294966016
1.2497828 0.80388725 0.10912492 4294966016
1.2515336 0.80115867 0.10912492 4294966016
1.2532785 0.79842633 0.10912492 4294966016
1.2550175 0.79569012 0.10912492 4294966016
1.2567503 0.79295021 0.10912492 4294966016
1.2584773 0.79020649 0.10912492 4294966016
1.2601982 0.78745914 0.10912492 4294966016
1.2619133 0.7847079 0.10912492 4294966016
1.2636222 0.78195304 0.10912492 4294966016
1.2653252 0.77919424 0.10912492 4294966016
1.2670221 0.77643198 0.10912492 4294966016
1.268713 0.7736659 0.10912492 4294966016
1.2703978 0.7708962 0.10912492 4294966016
1.2720767 0.76812285 0.10912492 4294966016
1.2737494 0.76534569 0.10912492 4294966016
1.2754161 0.76256502 0.10912492 4294966016
1.2770767 0.75978065 0.10912492 4294966016
1.2787312 0.7569927 0.10912492 4294966016
1.2803798 0.75420111 0.10912492 4294966016
1.2820221 0.75140595 0.10912492 4294966016
1.2836583 0.74860728 0.10912492 4294966016
1.2852885 0.74580497 0.10912492 4294966016
1.2869126 0.74299908 0.10912492 4294966016
1.2885303 0.74018979 0.10912492 4294966016
1.2901423 0.73737687 0.10912492 4294966016
1.2917478 0.73456061 0.10912492 4294966016
1.2933474 0.73174053 0.10912492 4294966016
1.2949406 0.72891712 0.10912492 4294966016
1.2965279 0.72609031 0.10912492 4294966016
1.2981088 0.72325993 0.10912492 4294966016
1.2996836 0.72042632 0.10912492 4294966016
1.3012524 0.71758914 0.10912492 4294966016
1.3028146 0.71474844 0.10912492 4294966016
1.304371 0.71190453 0.10912492 4294966016
1.305921 0.70905697 0.10912492 4294966016
1.3074648 0.70620644 0.10912492 4294966016
1.3090024 0.70335221 0.10912492 4294966016
1.3105338 0.70049471 0.10912492 4294966016
1.3120588 0.69763398 0.10912492 4294966016
1.3135777 0.69476986 0.10912492 4294966016
1.3150903 0.6919024 0.10912492 4294966016
1.3165967 0.6890316 0.10912492 4294966016
1.3180969 0.68615758 0.10912492 4294966016
1.3195906 0.68328035 0.10912492 4294966016
1.3210782 0.68039984 0.10912492 4294966016
1.3225595 0.67751616 0.10912492 4294966016
1.3240343 0.67462903 0.10912492 4294966016
1.325503 0.67173886 0.10912492 4294966016
1.3269653 0.66884542 0.10912492 4294966016
1.3284215 0.66594893 0.10912492 4294966016
1.3298711 0.66304922 0.10912492 4294966016
1.3313146 0.66014636 0.10912492 4294966016
1.3327516 0.65724015 0.10912492 4294966016
1.3341823 0.65433097 0.10912492 4294966016
1.3356067 0.65141875 0.10912492 4294966016
1.3370247 0.64850336 0.10912492 4294966016
1.3384364 0.64558494 0.10912492 4294966016
1.3398415 0.6426633 0.10912492 4294966016
1.3412404 0.63973868 0.10912492 4294966016
1.342633 0.63681114 0.10912492 4294966016
1.3440191 0.63388038 0.10912492 4294966016
1.3453988 0.63094664 0.10912492 4294966016
1.346772 0.62800992 0.10912492 4294966016
1.3481389 0.62507027 0.10912492 4294966016
1.3494995 0.62212759 0.10912492 4294966016
1.3508534 0.61918199 0.10912492 4294966016
1.3522011 0.61623341 0.10912492 4294966016
1.3535423 0.61328185 0.10912492 4294966016
1.3548771 0.61032748 0.10912492 4294966016
1.3562055 0.60737014 0.10912492 4294966016
1.3575274 0.60440987 0.10912492 4294966016
1.3588426 0.60144687 0.10912492 4294966016
1.3601515 0.59848082 0.10912492 4294966016
1.361454 0.59551203 0.10912492 4294966016
1.3627499 0.59254038 0.10912492 4294966016
1.3640393 0.58956593 0.10912492 4294966016
1.3653225 0.58658862 0.10912492 4294966016
1.3665988 0.58360863 0.10912492 4294966016
1.3678689 0.58062565 0.10912492 4294966016
1.3691324 0.57764006 0.10912492 4294966016
1.3703893 0.57465178 0.10912492 4294966016
1.3716398 0.5716607 0.10912492 4294966016
1.3728837 0.56866693 0.10912492 4294966016
1.3741212 0.56567037 0.10912492 4294966016
1.3753519 0.56267107 0.10912492 4294966016
1.3765762 0.55966932 0.10912492 4294966016
1.3777938 0.55666476 0.10912492 4294966016
1.3790052 0.55365747 0.10912492 4294966016
1.3802096 0.55064762 0.10912492 4294966016
1.3814077 0.5476352 0.10912492 4294966016
1.3825991 0.5446201 0.10912492 4294966016
1.3837841 0.54160249 0.10912492 4294966016
1.3849623 0.53858227 0.10912492 4294966016
1.3861341 0.53555948 0.10912492 4294966016
1.3872992 0.53253412 0.10912492 4294966016
1.3884578 0.52950621 0.10912492 4294966016
1.3896096 0.52647579 0.10912492 4294966016
1.3907547 0.52344292 0.10912492 4294966016
1.3918934 0.52040756 0.10912492 4294966016
1.3930255 0.51736963 0.10912492 4294966016
1.394151 0.51432931 0.10912492 4294966016
1.3952696 0.5112865 0.10912492 4294966016
1.3963819 0.5082413 0.10912492 4294966016
1.3974874 0.50519359 0.10912492 4294966016
1.3985863 0.50214362 0.10912492 4294966016
1.3996785 0.49909112 0.10912492 4294966016
1.4007639 0.49603635 0.10912492 4294966016
1.4018428 0.4929792 0.10912492 4294966016
1.4029149 0.48991969 0.10912492 4294966016
1.4039805 0.4868578 0.10912492 4294966016
1.4050392 0.48379359 0.10912492 4294966016
1.4060913 0.4807272 0.10912492 4294966016
1.4071368 0.47765842 0.10912492 4294966016
1.4081756 0.47458741 0.10912492 4294966016
1.4092076 0.47151408 0.10912492 4294966016
1.4102328 0.46843863 0.10912492 4294966016
1.4112515 0.46536076 0.10912492 4294966016
1.4122634 0.46228084 0.10912492 4294966016
1.4132686 0.45919865 0.10912492 4294966016
1.4142671 0.45611429 0.10912492 4294966016
1.4152588 0.45302781 0.10912492 4294966016
-6.829205 5.0996099 0.53623104 4294901841
-6.7277641 5.2327094 0.53623104 4294901841
-6.6237302 5.3637915 0.53623104 4294901841
-6.3685579 5.3438549 0.523045 4294901875
-6.3568845 5.3577366 0.523045 4294901875
-6.3451805 5.3715925 0.523045 4294901875
-6.3334465 5.3854227 0.523045 4294901875
-6.3216825 5.3992271 0.523045 4294901875
-6.3098879 5.4130058 0.523045 4294901875
-6.2980638 5.4267592 0.523045 4294901875
-6.2862091 5.440486 0.523045 4294901875
-6.2743254 5.4541879 0.523045 4294901875
-6.2384934 5.4951363 0.523045 4294901875
-6.214457 5.5223041 0.523045 4294901875
-6.2023945 5.5358491 0.523045 4294901875
-5.7405901 5.1688509 0.4859986 4294901977
-5.7293 5.1813631 0.4859986 4294901977
-5.7179823 5.19385 0.4859986 4294901977
-5.7066379 5.2063122 0.4859986 4294901977
-5.683866 5.2311625 0.4859986 4294901977
-5.6495075 5.2682514 0.4859986 4294901977
-5.6380005 5.2805638 0.4859986 4294901977
-5.6149054 5.3051138 0.4859986 4294901977
-5.6033182 5.3173509 0.4859986 4294901977
-5.5917048 5.3295631 0.4859986 4294901977
-5.5800638 5.3417492 0.4859986 4294901977
-5.568397 5.3539104 0.4859986 4294901977
-5.5567026 5.3660464 0.4859986 4294901977
-5.5332365 5.3902407 0.4859986 4294901977
-5.5214634 5.4022999 0.4859986 4294901977
-5.497839 5.4263401 0.4859986 4294901977
-5.4859877 5.4383216 0.4859986 4294901977
-5.4622064 5.4622068 0.4859986 4294901977
-5.4502769 5.4741106 0.4859986 4294901977
-5.4383211 5.4859881 0.4859986 4294901977
-5.4263396 5.4978395 0.4859986 4294901977
-5.4143324 5.509665 0.4859986 4294901977
-5.4022989 5.5214643 0.4859986 4294901977
-5.3781557 5.5449829 0.4859986 4294901977
-5.366046 5.5567036 0.4859986 4294901977
-5.3417492 5.5800638 0.4859986 4294901977
-5.3295622 5.5917048 0.4859986 4294901977
-5.3051138 5.6149063 0.4859986 4294901977
-5.2928514 5.6264668 0.4859986 4294901977
-5.2805634 5.6380005 0.4859986 4294901977
-5.2682505 5.6495075 0.4859986 4294901977
-5.2559128 5.6609879 0.4859986 4294901977
-5.2435503 5.6724405 0.4859986 4294901977
-5.2187495 5.6952658 0.4859986 4294901977
-5.2063117 5.7066383 0.4859986 4294901977
-5.1813622 5.7293005 0.4859986 4294901977
-5.1688509 5.7405906 0.4859986 4294901977
-5.1437531 5.7630897 0.4859986 4294901977
-5.1311679 5.7742972 0.4859986 4294901977
-4.8011289 5.4266891 0.45585918 4292149503
-4.6639385 5.2948565 0.44392899 4289921279
-4.6407919 5.315156 0.44392899 4289921279
-4.6175556 5.3353543 0.44392899 4289921279
-4.6059051 5.3454161 0.44392899 4289921279
-4.559082 5.385406 0.44392899 4289921279
-4.5473228 5.3953395 0.44392899 4289921279
-4.5355406 5.4052477 0.44392899 4289921279
-4.5237374 5.4151297 0.44392899 4289921279
-4.5119123 5.4249859 0.44392899 4289921279
-4.5000668 5.4348168 0.44392899 4289921279
-4.4881988 5.4446211 0.44392899 4289921279
-4.4763103 5.4543996 0.44392899 4289921279
-4.4643993 5.4641528 0.44392899 4289921279
-4.440515 5.4835801 0.44392899 4289921279
-4.4285417 5.4932551 0.44392899 4289921279
-4.4045305 5.5125256 0.44392899 4289921279
-4.3924937 5.5221219 0.44392899 4289921279
-4.3804359 5.531692 0.44392899 4289921279
-4.3683572 5.541235 0.44392899 4289921279
-4.3562579 5.5507522 0.44392899 4289921279
-4.3441377 5.5602427 0.44392899 4289921279
-4.331996 5.5697069 0.44392899 4289921279
-4.3198352 5.579145 0.44392899 4289921279
-4.3076534 5.5885558 0.44392899 4289921279
-4.2832279 5.6072979 0.44392899 4289921279
-4.2709842 5.6166296 0.44392899 4289921279
-4.2464361 5.6352119 0.44392899 4289921279
-4.2341318 5.6444626 0.44392899 4289921279
-4.2218075 5.653687 0.44392899 4289921279
-4.2094636 5.6628833 0.44392899 4289921279
-4.1847143 5.6811972 0.44392899 4289921279
-4.1723099 5.6903133 0.44392899 4289921279
-4.1598854 5.6994023 0.44392899 4289921279
-4.1474419 5.7084646 0.44392899 4289921279
-4.1224942 5.7265062 0.44392899 4289921279
-4.0849266 5.753365 0.44392899 4289921279
-4.0597835 5.7711339 0.44392899 4289921279
-4.047183 5.7799768 0.44392899 4289921279
-3.9838934 5.8237801 0.44392899 4289921279
-3.9456925 5.8497305 0.44392899 4289921279
-3.9201303 5.8668909 0.44392899 4289921279
-3.9073215 5.8754292 0.44392899 4289921279
-3.8944941 5.8839393 0.44392899 4289921279
-3.8816483 5.8924217 0.44392899 4289921279
-3.5349846 5.3917484 0.40562677 4283171071
-3.3541424 5.1403408 0.38616171 4279828735
-3.3972764 5.231348 0.39244077 4280942847
-3.3858557 5.2387471 0.39244077 4280942847
-3.3400106 5.2680945 0.39244077 4280942847
-3.525557 5.5876703 0.41567323 4284875007
-3.4889107 5.6106253 0.41567323 4284875007
-3.4766617 5.6182237 0.41567323 4284875007
-3.4643962 5.6257949 0.41567323 4284875007
-3.4260411 5.5907922 0.41253373 4284285183
-3.413836 5.5982533 0.41253373 4284285183
-3.2758818 5.4251375 0.39871979 4282056959
-3.4850676 5.800127 0.42571974 4286841087
-3.4365542 5.7477546 0.4213244 4285989119
-3.2964356 5.5408106 0.40562677 4283171071
-3.2601008 5.5622668 0.40562677 4283171071
-3.2479579 5.5693655 0.40562677 4283171071
-3.2257819 5.5591745 0.40437096 4282908927
-3.2735271 5.6699166 0.41190583 4284285183
-3.0636768 5.3875723 0.38992915 4280418559
-3.0519161 5.3942432 0.38992915 4280418559
-3.1772158 5.6444073 0.40751046 4283498751
-2.9631126 5.3182011 0.38302216 4279304447
-2.9398789 5.331079 0.38302216 4279304447
-3.1413109 5.7555962 0.41253373 4284285183
-3.1161675 5.7692475 0.41253373 4284285183
-2.9524102 5.4947033 0.39244077 4280942847
-2.9968715 5.6067524 0.3999756 4282056959
-2.9232244 5.6455007 0.3999756 4282056959
-2.8394089 5.5427279 0.39181283 4280680703
-2.7457533 5.3888445 0.38051054 4278714623
-2.6978974 5.3236036 0.37548733 4278191359
-2.6862769 5.3294773 0.37548733 4278191359
-2.6746438 5.3353243 0.37548733 4278191359
-2.7754815 5.5973034 0.39306867 4280942847
-2.760663 5.6601996 0.39620817 4281532671
-2.6969171 5.5912881 0.39055702 4280418559
-2.5373325 5.3799162 0.37423152 4278192383
-2.5255897 5.3854389 0.37423152 4278192383
-2.5138345 5.3909359 0.37423152 4278192383
-2.4902883 5.4018531 0.37423152 4278192383
-2.5242414 5.5070724 0.38113847 4278714623
-2.5453305 5.5852194 0.38616171 4279828735
-2.5331397 5.5907583 0.38616171 4279828735
-2.5209365 5.596272 0.38616171 4279828735
-2.4964943 5.6072178 0.38616171 4279828735
-2.4474678 5.6287904 0.38616171 4279828735
-2.3045135 5.3317981 0.36544085 4278199039
-2.2928755 5.3368134 0.36544085 4278199039
-2.2812271 5.3418026 0.36544085 4278199039
-2.2695677 5.3467669 0.36544085 4278199039
-2.2578974 5.3517056 0.36544085 4278199039
-2.2462163 5.3566184 0.36544085 4278199039
-2.2345247 5.3615065 0.36544085 4278199039
-2.2228222 5.3663688 0.36544085 4278199039
-2.2111096 5.3712053 0.36544085 4278199039
-2.1993861 5.3760166 0.36544085 4278199039
-2.1876521 5.3808017 0.36544085 4278199039
-2.1759076 5.3855619 0.36544085 4278199039
-2.1641531 5.3902969 0.36544085 4278199039
-2.1523886 5.3950043 0.36544085 4278199039
-2.1406133 5.3996878 0.36544085 4278199039
-2.1288278 5.4043446 0.36544085 4278199039
-2.1170325 5.4089766 0.36544085 4278199039
-2.105227 5.4135818 0.36544085 4278199039
-2.0934114 5.4181623 0.36544085 4278199039
-2.0815854 5.4227166 0.36544085 4278199039
-2.0697501 5.4272451 0.36544085 4278199039
-1.9747163 5.4625406 0.36544085 4278199039
-1.9627944 5.4668355 0.36544085 4278199039
-1.9508629 5.4711046 0.36544085 4278199039
-1.9269717 5.4795647 0.36544085 4278199039
-1.8910674 5.4920597 0.36544085 4278199039
-1.879081 5.496172 0.36544085 4278199039
-1.6703674 5.1029558 0.33781302 4278217471
-1.6369332 5.1137786 0.33781302 4278217471
-1.6146044 5.120872 0.33781302 4278217471
1.1058161 4.435185 0.28758058 4278252543
0.7331056 2.9132345 0.18899946 4278255360
0.69523937 2.7375109 0.17769717 4280155904
0.69129896 2.6973164 0.17518555 4280745728
0.72068042 2.6896152 0.17518555 4280745728
0.72654653 2.6880367 0.17518555 4280745728
0.73240918 2.686445 0.17518555 4280745728
0.73826826 2.6848407 0.17518555 4280745728
0.74412405 2.683224 0.17518555 4280745728
0.7499761 2.6815941 0.17518555 4280745728
0.75582469 2.6799514 0.17518555 4280745728
0.76166958 2.6782961 0.17518555 4280745728
0.76751095 2.6766281 0.17518555 4280745728
0.77918255 2.6732535 0.17518555 4280745728
0.78501284 2.6715472 0.17518555 4280745728
0.79666215 2.6680965 0.17518555 4280745728
0.86732513 2.7508032 0.18146461 4279631616
0.96095896 3.0247459 0.19967386 4278255389
0.98581141 3.0796733 0.20344129 4278255398
0.87587667 2.6956704 0.17832507 4280155904
0.88175565 2.6937535 0.17832507 4280155904
0.9029392 2.7182944 0.18020879 4279893760
0.9325369 2.7082834 0.18020879 4279893760
0.9384433 2.7062426 0.18020879 4279893760
0.94434518 2.7041886 0.18020879 4279893760
0.95613539 2.7000425 0.18020879 4279893760
0.96202362 2.6979499 0.18020879 4279893760
0.96790731 2.6958447 0.18020879 4279893760
0.97378647 2.6937268 0.18020879 4279893760
0.97966099 2.6915958 0.18020879 4279893760
0.99139589 2.6872957 0.18020879 4279893760
0.99725628 2.6851263 0.18020879 4279893760
1.003112 2.6829441 0.18020879 4279893760
1.0148089 2.6785419 0.18020879 4279893760
1.0206501 2.6763213 0.18020879 4279893760
1.0264866 2.6740885 0.18020879 4279893760
1.0323181 2.6718426 0.18020879 4279893760
1.0381447 2.669584 0.18020879 4279893760
1.049783 2.6650286 0.18020879 4279893760
1.0555947 2.6627321 0.18020879 4279893760
1.0614014 2.660423 0.18020879 4279893760
1.0729995 2.6557665 0.18020879 4279893760
1.0787909 2.6534193 0.18020879 4279893760
1.0845773 2.6510596 0.18020879 4279893760
1.0903583 2.6486866 0.18020879 4279893760
1.0961343 2.646302 0.18020879 4279893760
1.1076705 2.641494 0.18020879 4279893760
1.1134307 2.639071 0.18020879 4279893760
1.1191856 2.6366355 0.18020879 4279893760
1.1306794 2.6317272 0.18020879 4279893760
1.1364182 2.6292543 0.18020879 4279893760
1.1421517 2.6267686 0.18020879 4279893760
1.1478796 2.6242704 0.18020879 4279893760
1.1536022 2.6217601 0.18020879 4279893760
1.1650308 2.6167014 0.18020879 4279893760
1.1707368 2.6141534 0.18020879 4279893760
1.1764371 2.611593 0.18020879 4279893760
1.1878211 2.6064353 0.18020879 4279893760
1.1935047 2.6038377 0.18020879 4279893760
1.1991825 2.6012275 0.18020879 4279893760
1.2048547 2.5986052 0.18020879 4279893760
1.2105211 2.5959702 0.18020879 4279893760
1.2218366 2.5906639 0.18020879 4279893760
1.2274857 2.587992 0.18020879 4279893760
1.2331288 2.5853076 0.18020879 4279893760
1.2443976 2.5799026 0.18020879 4279893760
1.2500231 2.5771818 0.18020879 4279893760
1.2556427 2.5744486 0.18020879 4279893760
1.2612562 2.571703 0.18020879 4279893760
1.3003817 2.5521424 0.18020879 4279893760
1.3059465 2.5492992 0.18020879 4279893760
1.3115052 2.5464439 0.18020879 4279893760
1.3170575 2.5435767 0.18020879 4279893760
-5.3537922 4.799469 0.3768189 4291559679
-5.2905107 4.8691368 0.3768189 4291559679
-5.2798758 4.8806672 0.3768189 4291559679
-5.2478194 4.9151192 0.3768189 4291559679
-5.2370834 4.9265561 0.3768189 4291559679
-5.1721478 4.9946856 0.3768189 4291559679
-4.4665556 5.0485229 0.35326773 4286578943
-4.5017357 5.1107111 0.35693124 4287103231
-4.400526 5.198112 0.35693124 4287103231
-4.3664103 5.2268014 0.35693124 4287103231
-4.2513494 5.3208103 0.35693124 4287103231
-4.0987535 5.4392295 0.35693124 4287103231
-4.0630665 5.465939 0.35693124 4287103231
-4.6570196 6.293601 0.41031393 4294901960
-3.9437861 5.5035477 0.35483781 4286841087
-3.9826074 5.6352596 0.36164147 4288217343
-3.9579811 5.6525836 0.36164147 4288217343
-3.8828292 5.571084 0.35588452 4287103231
-3.8365126 5.5303106 0.35274434 4286251263
-3.9152265 5.6701498 0.36111811 4288217343
-3.6765945 5.3494787 0.34018373 4283760895
-3.8936081 5.7454343 0.3637349 4288807167
-3.4088702 5.2996831 0.33023989 4281532671
-3.6126604 5.6435323 0.35117429 4285989119
-3.5880017 5.6592417 0.35117429 4285989119
-3.4797275 5.5150347 0.34175381 4284023039
-3.4767981 5.5640402 0.34384724 4284285183
-3.4646509 5.5716119 0.34384724 4284285183
-3.1446381 5.1822033 0.31767929 4278714623
-3.3585892 5.5896316 0.34175381 4284023039
-3.1235328 5.276351 0.32134277 4279566591
-3.1138916 5.4206958 0.32762313 4280942847
-3.0822358 5.392796 0.32552966 4280418559
-2.9865441 5.2519326 0.31663257 4278714623
-2.9521072 5.2713666 0.31663257 4278714623
-2.8661389 5.1706529 0.30982888 4278194687
-2.8561568 5.2331285 0.31244567 4278192383
-2.9447401 5.4804287 0.32605302 4280680703
-2.9657288 5.5484896 0.32971656 4281532671
-2.9536176 5.5549464 0.32971656 4281532671
-2.9293513 5.5677814 0.32971656 4281532671
-2.9171968 5.5741591 0.32971656 4281532671
-2.7550926 5.3207941 0.31401575 4278190335
-2.6954255 5.261662 0.30982888 4278194687
-2.6839404 5.2675295 0.30982888 4278194687
-2.6904991 5.3090034 0.31192231 4278192383
-2.6789098 5.3148608 0.31192231 4278192383
-2.7047086 5.4248066 0.31767929 4278714623
-2.6691456 5.4423933 0.31767929 4278714623
-2.6572659 5.4482031 0.31767929 4278714623
-2.5438108 5.3034039 0.3082588 4278195711
-2.5236368 5.2909145 0.30721208 4278196735
-2.5005264 5.3018761 0.30721208 4278196735
-2.4889538 5.3073187 0.30721208 4278196735
-2.4604876 5.2765331 0.30511865 4278197759
-2.4489701 5.281888 0.30511865 4278197759
-2.3872707 5.1783915 0.29883832 4278203391
-2.3533275 5.1939044 0.29883832 4278203391
-2.3419905 5.1990261 0.29883832 4278203391
-2.2965317 5.2192659 0.29883832 4278203391
-2.273737 5.2292366 0.29883832 4278203391
-2.2280171 5.2488794 0.29883832 4278203391
-2.2050931 5.2585506 0.29883832 4278203391
-2.1936154 5.2633491 0.29883832 4278203391
-2.1821275 5.2681227 0.29883832 4278203391
-2.1706293 5.272871 0.29883832 4278203391
-2.1591203 5.2775936 0.29883832 4278203391
-2.1476011 5.2822914 0.29883832 4278203391
-2.1360717 5.2869644 0.29883832 4278203391
-2.112983 5.2962341 0.29883832 4278203391
-2.1014233 5.3008313 0.29883832 4278203391
-2.0898538 5.3054037 0.29883832 4278203391
-2.078274 5.3099504 0.29883832 4278203391
-2.0550857 5.3189683 0.29883832 4278203391
-2.0434761 5.3234382 0.29883832 4278203391
-2.0318575 5.3278842 0.29883832 4278203391
-2.0085912 5.3366995 0.29883832 4278203391
-1.9852865 5.3454123 0.29883832 4278203391
-1.9736196 5.3497314 0.29883832 4278203391
-1.9619437 5.3540235 0.29883832 4278203391
-1.9502583 5.3582916 0.29883832 4278203391
-1.9268599 5.3667502 0.29883832 4278203391
-1.9034246 5.3751068 0.29883832 4278203391
-1.8916935 5.3792462 0.29883832 4278203391
-1.8799533 5.3833609 0.29883832 4278203391
-1.8682042 5.3874493 0.29883832 4278203391
-1.8329034 5.3995614 0.29883832 4278203391
-1.8093262 5.4075069 0.29883832 4278203391
-1.7975248 5.4114418 0.29883832 4278203391
-1.7857143 5.4153504 0.29883832 4278203391
-1.7738955 5.4192333 0.29883832 4278203391
-1.7620687 5.4230905 0.29883832 4278203391
-1.7502331 5.4269218 0.29883832 4278203391
-1.738389 5.430727 0.29883832 4278203391
-1.5844226 4.9871831 0.2742404 4278224127
-1.5735384 4.9906282 0.2742404 4278224127
-1.5517479 4.9974461 0.2742404 4278224127
-1.5299277 5.004169 0.2742404 4278224127
-1.4971433 5.0140753 0.2742404 4278224127
-1.4862006 5.0173302 0.2742404 4278224127
-1.4752508 5.0205603 0.2742404 4278224127
-1.464294 5.0237665 0.2742404 4278224127
-1.4533306 5.0269494 0.2742404 4278224127
-1.4423602 5.0301085 0.2742404 4278224127
-1.4313829 5.0332432 0.2742404 4278224127
-1.4203985 5.0363541 0.2742404 4278224127
-1.3984096 5.0425038 0.2742404 4278224127
-1.3763943 5.0485568 0.2742404 4278224127
-1.3653768 5.051548 0.2742404 4278224127
-1.3543526 5.0545149 0.2742404 4278224127
-1.3433225 5.0574574 0.2742404 4278224127
-1.3212423 5.0632706 0.2742404 4278224127
-1.3101931 5.0661407 0.2742404 4278224127
-1.2991372 5.0689878 0.2742404 4278224127
-1.2880751 5.0718098 0.2742404 4278224127
-1.2770073 5.0746078 0.2742404 4278224127
-1.265933 5.0773816 0.2742404 4278224127
-1.2548531 5.0801315 0.2742404 4278224127
-1.2437671 5.0828567 0.2742404 4278224127
-1.232675 5.0855579 0.2742404 4278224127
-1.221577 5.0882354 0.2742404 4278224127
-1.2104734 5.0908885 0.2742404 4278224127
-1.1993636 5.0935173 0.2742404 4278224127
-1.1882488 5.0961213 0.2742404 4278224127
-1.1771276 5.0987015 0.2742404 4278224127
-1.1660014 5.1012578 0.2742404 4278224127
-1.1548691 5.1037893 0.2742404 4278224127
-1.1437317 5.106297 0.2742404 4278224127
-1.1325889 5.1087799 0.2742404 4278224127
-1.1214404 5.1112385 0.2742404 4278224127
-1.1102868 5.1136732 0.2742404 4278224127
-1.0991281 5.1160827 0.2742404 4278224127
-1.0879636 5.1184692 0.2742404 4278224127
-1.0656202 5.1231675 0.2742404 4278224127
-1.0544405 5.1254802 0.2742404 4278224127
-1.0432562 5.1277685 0.2742404 4278224127
-1.0320665 5.1300321 0.2742404 4278224127
-1.020872 5.1322713 0.2742404 4278224127
-1.0096724 5.1344867 0.2742404 4278224127
-0.99846864 5.1366768 0.2742404 4278224127
-0.98725975 5.1388426 0.2742404 4278224127
-0.9760462 5.1409845 0.2742404 4278224127
-0.96482801 5.1431017 0.2742404 4278224127
-0.95360506 5.1451945 0.2742404 4278224127
-0.94237792 5.1472626 0.2742404 4278224127
-0.93114591 5.1493068 0.2742404 4278224127
-0.91990995 5.1513257 0.2742404 4278224127
-0.90866923 5.1533203 0.2742404 4278224127
-0.8974241 5.1552906 0.2742404 4278224127
-0.88617504 5.1572361 0.2742404 4278224127
-0.87492144 5.1591573 0.2742404 4278224127
-0.86366367 5.1610537 0.2742404 4278224127
-0.85240221 5.1629257 0.2742404 4278224127
-0.84113657 5.164773 0.2742404 4278224127
-0.82986653 5.1665955 0.2742404 4278224127
-0.81859279 5.1683941 0.2742404 4278224127
-0.80731547 5.1701674 0.2742404 4278224127
-0.79603374 5.1719165 0.2742404 4278224127
-0.78474855 5.1736407 0.2742404 4278224127
-0.77345955 5.1753407 0.2742404 4278224127
-0.76216674 5.1770163 0.2742404 4278224127
-0.7508707 5.1786661 0.2742404 4278224127
-0.73957074 5.1802921 0.2742404 4278224127
-0.72826707 5.1818929 0.2742404 4278224127
-0.71696067 5.1834698 0.2742404 4278224127
-0.70565009 5.1850219 0.2742404 4278224127
-0.69433653 5.1865492 0.2742404 4278224127
-0.68301976 5.1880507 0.2742404 4278224127
-0.67169929 5.1895289 0.2742404 4278224127
-0.66037607 5.1909819 0.2742404 4278224127
-0.6490494 5.1924105 0.2742404 4278224127
-0.63771975 5.1938143 0.2742404 4278224127
-0.62638712 5.1951928 0.2742404 4278224127
-0.61505175 5.196547 0.2742404 4278224127
-0.6037128 5.1978765 0.2742404 4278224127
-0.59237146 5.1991816 0.2742404 4278224127
-0.58102727 5.2004614 0.2742404 4278224127
-0.56968021 5.2017164 0.2742404 4278224127
-0.55833054 5.2029467 0.2742404 4278224127
-0.54697835 5.2041526 0.2742404 4278224127
-0.53562307 5.2053337 0.2742404 4278224127
-0.52426553 5.20649 0.2742404 4278224127
-0.51290548 5.2076211 0.2742404 4278224127
-0.50154316 5.2087274 0.2742404 4278224127
-0.47881114 5.2108665 0.2742404 4278224127
-0.46744156 5.2118988 0.2742404 4278224127
-0.45606971 5.2129059 0.2742404 4278224127
-0.44469595 5.2138886 0.2742404 4278224127
-0.43332005 5.2148466 0.2742404 4278224127
-0.42194188 5.2157793 0.2742404 4278224127
-0.4105618 5.2166877 0.2742404 4278224127
-0.39917994 5.2175708 0.2742404 4278224127
-0.38779593 5.2184291 0.2742404 4278224127
-0.37641025 5.2192631 0.2742404 4278224127
-0.36502254 5.2200723 0.2742404 4278224127
-0.35363352 5.2208562 0.2742404 4278224127
-0.34224224 5.2216148 0.2742404 4278224127
-0.33084989 5.2223487 0.2742404 4278224127
-0.31945562 5.2230582 0.2742404 4278224127
-0.30806005 5.2237425 0.2742404 4278224127
-0.29666269 5.2244024 0.2742404 4278224127
-0.28526413 5.2250376 0.2742404 4278224127
-0.27386427 5.2256474 0.2742404 4278224127
-0.26246309 5.2262325 0.2742404 4278224127
-0.25106049 5.2267923 0.2742404 4278224127
-0.23965681 5.2273278 0.2742404 4278224127
-0.22825205 5.2278385 0.2742404 4278224127
-0.21684623 5.2283239 0.2742404 4278224127
-0.20543921 5.2287836 0.2742404 4278224127
-0.19403136 5.2292199 0.2742404 4278224127
-0.18262231 5.2296309 0.2742404 4278224127
-0.17121267 5.2300167 0.2742404 4278224127
-0.1598022 5.2303782 0.2742404 4278224127
-0.14839101 5.2307138 0.2742404 4278224127
-0.13697886 5.2310257 0.2742404 4278224127
-0.12556624 5.2313118 0.2742404 4278224127
-0.11415291 5.2315736 0.2742404 4278224127
-0.10273933 5.2318096 0.2742404 4278224127
-0.091325045 5.2320218 0.2742404 4278224127
-0.079910398 5.2322083 0.2742404 4278224127
-0.068495274 5.2323704 0.2742404 4278224127
-0.057079673 5.2325068 0.2742404 4278224127
-0.045664072 5.2326198 0.2742404 4278224127
-0.034247994 5.2327065 0.2742404 4278224127
-0.022832036 5.232769 0.2742404 4278224127
-0.011415839 5.2328062 0.2742404 4278224127
3.5762787e-07 5.2328186 0.2742404 4278224127
0.011416674 5.2328062 0.2742404 4278224127
0.022832751 5.2327685 0.2742404 4278224127
0.034248829 5.2327065 0.2742404 4278224127
0.045664787 5.2326193 0.2742404 4278224127
0.057080388 5.2325072 0.2742404 4278224127
0.06849587 5.2323704 0.2742404 4278224127
0.079910755 5.2322083 0.2742404 4278224127
0.091325521 5.2320213 0.2742404 4278224127
0.10273993 5.2318096 0.2742404 4278224127
0.11415386 5.2315736 0.2742404 4278224127
0.12556684 5.2313118 0.2742404 4278224127
0.13697946 5.2310257 0.2742404 4278224127
0.1483916 5.2307143 0.2742404 4278224127
0.15980279 5.2303782 0.2742404 4278224127
0.17121339 5.2300172 0.2742404 4278224127
0.18262291 5.2296305 0.2742404 4278224127
0.19403195 5.2292199 0.2742404 4278224127
0.20543969 5.2287841 0.2742404 4278224127
0.2168467 5.2283235 0.2742404 4278224127
0.22825253 5.227838 0.2742404 4278224127
0.23965764 5.2273278 0.2742404 4278224127
0.2510612 5.2267928 0.2742404 4278224127
0.26246357 5.2262325 0.2742404 4278224127
0.27386475 5.2256474 0.2742404 4278224127
0.28526485 5.2250376 0.2742404 4278224127
0.29666328 5.2244024 0.2742404 4278224127
0.30806065 5.223743 0.2742404 4278224127
0.31945634 5.2230582 0.2742404 4278224127
0.33085024 5.2223487 0.2742404 4278224127
0.34224308 5.2216153 0.2742404 4278224127
0.35363412 5.2208557 0.2742404 4278224127
0.36502326 5.2200718 0.2742404 4278224127
0.37641096 5.2192631 0.2742404 4278224127
0.38779676 5.2184296 0.2742404 4278224127
0.39918053 5.2175708 0.2742404 4278224127
0.41056252 5.2166877 0.2742404 4278224127
0.42194259 5.2157798 0.2742404 4278224127
0.43332064 5.2148466 0.2742404 4278224127
0.44469678 5.2138886 0.2742404 4278224127
0.45607054 5.2129059 0.2742404 4278224127
0.46744227 5.2118983 0.2742404 4278224127
0.47881174 5.2108665 0.2742404 4278224127
0.49017882 5.2098098 0.2742404 4278224127
0.50154388 5.2087278 0.2742404 4278224127
0.51290631 5.2076216 0.2742404 4278224127
0.52426624 5.2064896 0.2742404 4278224127
0.53562379 5.2053337 0.2742404 4278224127
0.54697889 5.2041526 0.2742404 4278224127
0.55833119 5.2029471 0.2742404 4278224127
0.58102787 5.2004609 0.2742404 4278224127
0.59237218 5.1991811 0.2742404 4278224127
0.60371357 5.197876 0.2742404 4278224127
0.61505222 5.196547 0.2742404 4278224127
0.62638789 5.1951933 0.2742404 4278224127
0.63772041 5.1938138 0.2742404 4278224127
0.64905012 5.19241 0.2742404 4278224127
0.66037655 5.1909819 0.2742404 4278224127
0.67170006 5.1895289 0.2742404 4278224127
0.68302023 5.1880507 0.2742404 4278224127
0.69433719 5.1865487 0.2742404 4278224127
0.70565081 5.1850214 0.2742404 4278224127
0.71696109 5.1834698 0.2742404 4278224127
0.72826797 5.1818933 0.2742404 4278224127
0.73957133 5.1802921 0.2742404 4278224127
0.75087124 5.1786661 0.2742404 4278224127
0.76216739 5.1770153 0.2742404 4278224127
0.77346015 5.1753407 0.2742404 4278224127
0.78474915 5.1736407 0.2742404 4278224127
0.7960344 5.171916 0.2742404 4278224127
0.80731589 5.1701674 0.2742404 4278224127
0.81859356 5.1683941 0.2742404 4278224127
0.82986718 5.1665955 0.2742404 4278224127
0.84113699 5.1647725 0.2742404 4278224127
0.85240281 5.1629252 0.2742404 4278224127
0.86366445 5.1610532 0.2742404 4278224127
0.8749221 5.1591573 0.2742404 4278224127
0.88617545 5.1572356 0.2742404 4278224127
0.89742482 5.1552906 0.2742404 4278224127
0.90866971 5.1533203 0.2742404 4278224127
0.91991037 5.1513257 0.2742404 4278224127
0.93114662 5.1493063 0.2742404 4278224127
0.94237846 5.1472626 0.2742404 4278224127
0.95360571 5.1451945 0.2742404 4278224127
0.96482855 5.1431017 0.2742404 4278224127
0.97604674 5.1409845 0.2742404 4278224127
0.9872604 5.1388431 0.2742404 4278224127
0.99846917 5.1366773 0.2742404 4278224127
1.0096734 5.1344867 0.2742404 4278224127
1.0208726 5.1322713 0.2742404 4278224127
1.0320671 5.1300321 0.2742404 4278224127
1.0432565 5.127768 0.2742404 4278224127
1.0544411 5.1254802 0.2742404 4278224127
1.0656207 5.1231675 0.2742404 4278224127
1.0767951 5.1208305 0.2742404 4278224127
1.0879645 5.1184688 0.2742404 4278224127
1.0991287 5.1160831 0.2742404 4278224127
1.1102877 5.1136732 0.2742404 4278224127
1.1214412 5.1112385 0.2742404 4278224127
1.1325896 5.1087799 0.2742404 4278224127
1.1437324 5.1062965 0.2742404 4278224127
1.15487 5.1037893 0.2742404 4278224127
1.1660018 5.1012578 0.2742404 4278224127
1.1771282 5.0987015 0.2742404 4278224127
1.1882491 5.0961213 0.2742404 4278224127
1.2104739 5.0908885 0.2742404 4278224127
1.1563026 4.8163447 0.25958636 4278236159
1.147988 4.7361689 0.2553995 4278239231
0.76192629 3.1137347 0.16799843 4278255394
0.69926965 2.8309131 0.152821 4279369472
0.67645317 2.7131047 0.14654069 4280483584
0.67749655 2.6922536 0.14549397 4280745728
0.71853101 2.6815934 0.14549397 4280745728
0.72437966 2.6800196 0.14549397 4280745728
0.73022479 2.6784327 0.14549397 4280745728
0.74773932 2.6735961 0.14549397 4280745728
0.6965701 2.4493835 0.13345669 4283236096
0.70191211 2.4478579 0.13345669 4283236096
0.70725077 2.4463205 0.13345669 4283236096
0.71258622 2.444772 0.13345669 4283236096
0.71791816 2.4432113 0.13345669 4283236096
0.72324669 2.4416392 0.13345669 4283236096
0.72857189 2.4400558 0.13345669 4283236096
0.84671611 2.7694831 0.15177429 4279369472
0.88510215 2.8726082 0.15753123 4278255360
1.0098212 3.2521546 0.17846562 4278255428
0.92744929 2.964025 0.16276483 4278255377
1.2372102 3.9239287 0.21562414 4278255547
1.1580805 3.6452119 0.20044672 4278255500
0.93465084 2.9198477 0.16067138 4278255368
0.90423644 2.8037515 0.15439108 4278779648
0.87640566 2.6972988 0.14863412 4280155904
0.92334652 2.6815927 0.14863412 4280155904
0.94087762 2.6754918 0.14863412 4280155904
0.94671237 2.6734328 0.14863412 4280155904
0.95254266 2.671361 0.14863412 4280155904
0.95836842 2.6692765 0.14863412 4280155904
0.96418953 2.6671793 0.14863412 4280155904
0.97000617 2.6650693 0.14863412 4280155904
0.9758181 2.6629469 0.14863412 4280155904
0.98162544 2.6608117 0.14863412 4280155904
0.98742807 2.6586635 0.14863412 4280155904
0.99322599 2.656503 0.14863412 4280155904
1.0105914 2.6499457 0.14863412 4280155904
1.0163703 2.6477344 0.14863412 4280155904
1.0279135 2.6432748 0.14863412 4280155904
1.0394372 2.6387644 0.14863412 4280155904
1.0451915 2.6364901 0.14863412 4280155904
1.050941 2.6342039 0.14863412 4280155904
1.0566854 2.6319048 0.14863412 4280155904
1.0624248 2.6295931 0.14863412 4280155904
1.0681592 2.6272693 0.14863412 4280155904
1.0738885 2.6249325 0.14863412 4280155904
1.0796126 2.6225836 0.14863412 4280155904
1.0853317 2.6202219 0.14863412 4280155904
1.0967541 2.6154611 0.14863412 4280155904
1.1024575 2.6130621 0.14863412 4280155904
1.1081557 2.6106508 0.14863412 4280155904
1.1195363 2.6057909 0.14863412 4280155904
1.1252186 2.6033423 0.14863412 4280155904
1.1308955 2.6008811 0.14863412 4280155904
1.136567 2.5984077 0.14863412 4280155904
1.1422331 2.5959218 0.14863412 4280155904
1.1535491 2.5909133 0.14863412 4280155904
1.1591988 2.5883904 0.14863412 4280155904
1.1648431 2.5858552 0.14863412 4280155904
1.1761149 2.5807483 0.14863412 4280155904
1.1817424 2.578176 0.14863412 4280155904
1.1873643 2.5755918 0.14863412 4280155904
1.1929805 2.5729952 0.14863412 4280155904
1.1985911 2.5703864 0.14863412 4280155904
1.209795 2.5651321 0.14863412 4280155904
1.2153885 2.5624866 0.14863412 4280155904
1.2209761 2.559829 0.14863412 4280155904
1.2321337 2.554477 0.14863412 4280155904
1.2377038 2.5517828 0.14863412 4280155904
1.243268 2.5490766 0.14863412 4280155904
1.2488263 2.5463581 0.14863412 4280155904
1.3647991 2.7675385 0.16171812 4278255372
1.5216701 3.0687451 0.17951234 4278255432
1.6263902 3.2620337 0.19102626 4278255470
1.3394552 2.6574302 0.15596116 4278517504
1.3226784 2.6099629 0.15334436 4279041792
1.3283694 2.6070712 0.15334436 4279041792
1.334054 2.604167 0.15334436 4279041792
1.2437104 2.4148126 0.1423538 4281597696
1.2489758 2.4120934 0.1423538 4281597696
3.99016 4.5499043 0.3171559 4278714623
4.0000768 4.5411887 0.3171559 4278714623
4.0297127 4.5149112 0.3171559 4278714623
4.0591764 4.48844 0.3171559 4278714623
4.0689592 4.4795742 0.3171559 4278714623
4.0787225 4.470686 0.3171559 4278714623
4.0884662 4.4617767 0.3171559 4278714623
4.0981903 4.4528465 0.3171559 4278714623
4.1078954 4.4438953 0.3171559 4278714623
4.1272464 4.4259291 0.3171559 4278714623
4.1368923 4.4169145 0.3171559 4278714623
4.1657124 4.3897438 0.3171559 4278714623
4.1848259 4.3715258 0.3171559 4278714623
4.1943536 4.3623857 0.3171559 4278714623
4.2038608 4.3532248 0.3171559 4278714623
4.222815 4.3348408 0.3171559 4278714623
4.2322621 4.3256173 0.3171559 4278714623
4.2416892 4.3163738 0.3171559 4278714623
4.2604828 4.2978244 0.3171559 4278714623
4.2791948 4.2791944 0.3171559 4278714623
4.2885203 4.2698479 0.3171559 4278714623
4.2978253 4.2604818 0.3171559 4278714623
4.3163743 4.2416887 0.3171559 4278714623
4.3256178 4.2322617 0.3171559 4278714623
4.3348413 4.222815 0.3171559 4278714623
4.3532252 4.2038603 0.3171559 4278714623
4.3715267 4.1848259 0.3171559 4278714623
4.3806458 4.1752782 0.3171559 4278714623
4.3897448 4.1657114 0.3171559 4278714623
4.4078794 4.1465187 0.3171559 4278714623
4.4169149 4.1368918 0.3171559 4278714623
4.42593 4.1272459 0.3171559 4278714623
4.4438958 4.1078949 0.3171559 4278714623
4.4617782 4.0884652 0.3171559 4278714623
4.4795747 4.0689583 0.3171559 4278714623
4.5061097 4.0395527 0.3171559 4278714623
4.5149117 4.0297122 0.3171559 4278714623
4.5324516 4.009974 0.3171559 4278714623
4.5499058 3.990159 0.3171559 4278714623
4.5585995 3.9802229 0.3171559 4278714623
4.5672722 3.9702687 0.3171559 4278714623
4.5845523 3.9503026 0.3171559 4278714623
4.6017456 3.9302611 0.3171559 4278714623
4.6188507 3.910145 0.3171559 4278714623
4.6358676 3.8899541 0.3171559 4278714623
4.6443429 3.8798306 0.3171559 4278714623
4.6527963 3.869689 0.3171559 4278714623
4.6696372 3.8493509 0.3171559 4278714623
4.6780238 3.8391542 0.3171559 4278714623
4.6863885 3.828939 0.3171559 4278714623
4.7030506 3.8084545 0.3171559 4278714623
4.7196231 3.7878973 0.3171559 4278714623
4.7278757 3.7775917 0.3171559 4278714623
4.7361059 3.7672682 0.3171559 4278714623
4.7524986 3.7465672 0.3171559 4278714623
4.7606611 3.7361898 0.3171559 4278714623
4.7688007 3.725795 0.3171559 4278714623
4.7850122 3.7049518 0.3171559 4278714623
4.8011327 3.6840377 0.3171559 4278714623
4.8171616 3.663054 0.3171559 4278714623
4.8489437 3.6208777 0.3171559 4278714623
4.8646965 3.5996857 0.3171559 4278714623
4.8803573 3.5784254 0.3171559 4278714623
4.8881521 3.5677691 0.3171559 4278714623
4.8959241 3.557097 0.3171559 4278714623
4.9113984 3.5357008 0.3171559 4278714623
4.9267788 3.5142369 0.3171559 4278714623
4.9420662 3.4927063 0.3171559 4278714623
4.9572587 3.4711094 0.3171559 4278714623
4.9648194 3.4602857 0.3171559 4278714623
4.9723568 3.449446 0.3171559 4278714623
4.98736 3.4277172 0.3171559 4278714623
4.9948268 3.4168286 0.3171559 4278714623
5.0022693 3.4059231 0.3171559 4278714623
5.0170827 3.3840642 0.3171559 4278714623
5.0318003 3.3621411 0.3171559 4278714623
5.0391235 3.3511553 0.3171559 4278714623
5.046423 3.3401542 0.3171559 4278714623
5.0609488 3.3181028 0.3171559 4278714623
5.0681758 3.307054 0.3171559 4278714623
5.0753784 3.295989 0.3171559 4278714623
5.0897117 3.2738118 0.3171559 4278714623
5.1039476 3.2515726 0.3171559 4278714623
5.1110296 3.2404299 0.3171559 4278714623
5.1180868 3.2292717 0.3171559 4278714623
5.1321287 3.2069094 0.3171559 4278714623
5.1391129 3.1957049 0.3171559 4278714623
5.1460724 3.1844854 0.3171559 4278714623
5.1599183 3.1620014 0.3171559 4278714623
5.173666 3.1394567 0.3171559 4278714623
5.1805029 3.1281624 0.3171559 4278714623
5.187315 3.1168525 0.3171559 4278714623
5.2008653 3.0941892 0.3171559 4278714623
5.2076035 3.0828354 0.3171559 4278714623
5.2143173 3.0714674 0.3171559 4278714623
5.2276692 3.048686 0.3171559 4278714623
5.240922 3.025847 0.3171559 4278714623
5.2475109 3.0144057 0.3171559 4278714623
5.2540751 3.0029507 0.3171559 4278714623
5.267127 2.9799967 0.3171559 4278714623
5.2736163 2.9684987 0.3171559 4278714623
5.2800798 2.956986 0.3171559 4278714623
5.2929316 2.9339197 0.3171559 4278714623
5.3056831 2.9107964 0.3171559 4278714623
5.3120208 2.8992143 0.3171559 4278714623
5.3183331 2.887619 0.3171559 4278714623
5.3308821 2.8643861 0.3171559 4278714623
5.3371186 2.8527484 0.3171559 4278714623
5.3433299 2.8410978 0.3171559 4278714623
5.3556752 2.8177564 0.3171559 4278714623
5.367919 2.7943606 0.3171559 4278714623
5.3740025 2.7826436 0.3171559 4278714623
5.3800607 2.7709124 0.3171559 4278714623
5.3920994 2.7474117 0.3171559 4278714623
5.3980808 2.7356412 0.3171559 4278714623
5.404036 2.7238581 0.3171559 4278714623
5.4158702 2.7002525 0.3171559 4278714623
5.4276004 2.6765959 0.3171559 4278714623
5.4334269 2.6647482 0.3171559 4278714623
5.4392281 2.6528883 0.3171559 4278714623
5.4507513 2.6291296 0.3171559 4278714623
5.4564743 2.6172318 0.3171559 4278714623
5.4621716 2.6053214 0.3171559 4278714623
5.4734869 2.5814636 0.3171559 4278714623
5.4846983 2.5575566 0.3171559 4278714623
5.4902649 2.5455842 0.3171559 4278714623
5.4958057 2.5336001 0.3171559 4278714623
5.5068083 2.5095966 0.3171559 4278714623
5.51227 2.4975765 0.3171559 4278714623
5.5177059 2.4855452 0.3171559 4278714623
5.5284986 2.4614453 0.3171559 4278714623
5.5391855 2.4372993 0.3171559 4278714623
5.5444899 2.425209 0.3171559 4278714623
5.549768 2.4131074 0.3171559 4278714623
5.5602441 2.388869 0.3171559 4278714623
5.5654426 2.3767326 0.3171559 4278714623
5.5706148 2.3645849 0.3171559 4278714623
5.5808792 2.3402562 0.3171559 4278714623
5.5910378 2.3158832 0.3171559 4278714623
5.596077 2.3036795 0.3171559 4278714623
5.6010885 2.2914653 0.3171559 4278714623
5.6110339 2.2670045 0.3171559 4278714623
5.6159668 2.2547574 0.3171559 4278714623
5.620872 2.2424998 0.3171559 4278714623
5.6306033 2.2179532 0.3171559 4278714623
5.6402273 2.1933637 0.3171559 4278714623
5.644999 2.1810536 0.3171559 4278714623
5.649744 2.1687331 0.3171559 4278714623
5.659153 2.1440606 0.3171559 4278714623
5.6638174 2.1317091 0.3171559 4278714623
5.6684546 2.119348 0.3171559 4278714623
5.6776476 2.0945945 0.3171559 4278714623
5.6867332 2.0698009 0.3171559 4278714623
5.6912346 2.0573893 0.3171559 4278714623
5.6957102 2.0449684 0.3171559 4278714623
5.7045789 2.020097 0.3171559 4278714623
5.7089729 2.0076466 0.3171559 4278714623
5.7133389 1.9951866 0.3171559 4278714623
5.7219896 1.9702383 0.3171559 4278714623
5.7305326 1.9452531 0.3171559 4278714623
5.7347622 1.9327464 0.3171559 4278714623
5.738966 1.9202302 0.3171559 4278714623
5.7472897 1.8951712 0.3171559 4278714623
5.7514105 1.8826282 0.3171559 4278714623
5.7555041 1.8700758 0.3171559 4278714623
5.7636089 1.8449453 0.3171559 4278714623
-1.6011019 1.1955997 0.083751313 4289396480
-6.6736946 5.0062003 0.34966174 4294901870
-6.6297536 5.0642481 0.34966174 4294901870
-6.6186895 5.0786991 0.34966174 4294901870
-7.3074636 5.6580429 0.38734981 4294912512
-7.1184235 5.8941069 0.38734981 4294912512
-7.1055484 5.9096227 0.38734981 4294912512
-6.172513 5.1564474 0.33709905 4294901922
-6.3372831 5.3176126 0.34673044 4294901883
-6.0735574 5.1189418 0.33291146 4294901939
-6.5732932 5.5647039 0.36096814 4294901828
-6.450335 5.7067747 0.36096814 4294901828
-6.4253736 5.7348652 0.36096814 4294901828
-5.3385243 4.8068295 0.30108598 4291297535
-5.8912091 5.3277874 0.33291146 4294901939
-5.8091612 5.4171314 0.33291146 4294901939
-5.7377558 5.4927068 0.33291146 4294901939
-5.725759 5.5052118 0.33291146 4294901939
-5.7137346 5.5176902 0.33291146 4294901939
-5.7016835 5.5301418 0.33291146 4294901939
-5.6896052 5.5425682 0.33291146 4294901939
-5.6774998 5.5549679 0.33291146 4294901939
-5.6653671 5.5673413 0.33291146 4294901939
-5.6532073 5.5796871 0.33291146 4294901939
-5.5920076 5.6410217 0.33291146 4294901939
-5.5796876 5.6532078 0.33291146 4294901939
-5.5549669 5.6774998 0.33291146 4294901939
-5.5425677 5.6896057 0.33291146 4294901939
-5.5301418 5.701684 0.33291146 4294901939
-5.5176897 5.7137356 0.33291146 4294901939
-5.5052109 5.7257595 0.33291146 4294901939
-5.4927063 5.7377563 0.33291146 4294901939
-5.4171305 5.8091617 0.33291146 4294901939
-5.4044447 5.8209667 0.33291146 4294901939
-5.3917322 5.8327432 0.33291146 4294901939
-5.378994 5.8444924 0.33291146 4294901939
-4.7335777 5.3503361 0.29941094 4291035391
-4.5039606 5.1132364 0.28559199 4287103231
-5.1120353 5.8291597 0.32495511 4294901973
-4.8374686 5.5648708 0.30904236 4293525759
-4.9560843 5.7265072 0.31741747 4294902003
-4.7283573 5.4875288 0.30359852 4292149503
-4.8810096 5.8428011 0.31909251 4294901998
-5.6093493 6.7445107 0.36766824 4294901798
-4.6069613 5.5639148 0.30276099 4291887359
-4.6265874 5.6124997 0.30485478 4292411647
-4.3365512 5.3076739 0.287267 4287693055
-4.1862593 5.1466022 0.27805436 4285137151
-4.3950906 5.427485 0.29271084 4289069311
-4.2327423 5.2503805 0.28266069 4286578943
-4.2729239 5.3718019 0.28768575 4287693055
-4.3666382 5.5142684 0.29480463 4289593599
-4.7690277 6.0494823 0.32286131 4294901981
-4.2191691 5.3760743 0.28642949 4287365375
-4.0799074 5.2692738 0.27931064 4285399295
-4.1906872 5.46141 0.28852326 4287955199
-4.0947337 5.5337152 0.28852326 4287955199
-4.313745 5.8563704 0.30485478 4292411647
-3.9642072 5.406497 0.28098565 4285989119
-3.8581576 5.2860088 0.27428555 4284285183
-3.9285512 5.4571018 0.28182316 4286251263
-3.8118823 5.3194757 0.27428555 4284285183
-3.8872962 5.449789 0.2805669 4285989119
-3.8349085 5.4012308 0.2776356 4285137151
-3.5992196 5.1882539 0.26465416 4281532671
-3.8149738 5.5249605 0.28140441 4285989119
-3.8077531 5.5662928 0.28266069 4286578943
-3.8687017 5.6819496 0.28810453 4287955199
-3.8394809 5.6655626 0.28684825 4287693055
-3.6092174 5.3508854 0.27051675 4283171071
-3.480587 5.1845455 0.26172286 4280942847
-3.5747337 5.349968 0.26967922 4282908927
-3.6009865 5.4404984 0.27344805 4284023039
-3.5231533 5.3482189 0.26842296 4282646783
-3.1499202 4.8044276 0.24078503 4278201087
-3.2750857 5.1161895 0.25460398 4278976767
-3.2317064 5.072763 0.25209147 4278190335
-3.4281311 5.43326 0.26926047 4282908927
-3.2356272 5.1530361 0.25502276 4278976767
-3.2176042 5.1995907 0.25627902 4279304447
-3.2314289 5.2732129 0.25921032 4280090879
-3.2303205 5.2973118 0.26004782 4280418559
-3.2403691 5.4196277 0.26465416 4281532671
-3.1825621 5.3494058 0.26088533 4280680703
-2.8502324 4.8146849 0.23450367 4278207743
-2.9512818 5.0102835 0.24371633 4278199039
-3.0552256 5.2388825 0.25418523 4278714623
-2.9535284 5.0899839 0.24664761 4278195711
-2.8674822 4.9666252 0.24036627 4278202111
-3.0522254 5.367434 0.25879157 4280090879
-2.8191121 4.9827642 0.23994751 4278202111
-2.9748659 5.2849278 0.25418523 4278714623
-2.9517779 5.2978582 0.25418523 4278714623
-2.7803659 5.0159135 0.24036627 4278202111
-2.8514376 5.170702 0.24748513 4278194687
-2.7872877 5.080555 0.24287881 4278199039
-2.7412562 5.0487661 0.24078503 4278201087
-2.7911289 5.3617086 0.25334772 4278714623
-2.7794242 5.3677855 0.25334772 4278714623
-2.7559767 5.3798614 0.25334772 4278714623
-2.7442331 5.3858614 0.25334772 4278714623
-2.6622453 5.2817984 0.24790388 4278194687
-2.6775813 5.3411846 0.25041643 4278191359
-2.6837544 5.3827791 0.25209147 4278190335
-2.6602421 5.3944383 0.25209147 4278190335
-2.6248786 5.4117336 0.25209147 4278190335
-2.5392752 5.2644629 0.24497259 4278196735
-2.5277839 5.2699904 0.24497259 4278196735
-2.4560618 5.1492414 0.23911001 4278203391
-2.4335704 5.1599088 0.23911001 4278203391
-2.422308 5.165206 0.23911001 4278203391
-2.3350289 5.0074863 0.23157239 4278211071
-2.3240988 5.012569 0.23157239 4278211071
-2.4187722 5.2769732 0.24329756 4278199039
-2.2405574 4.9738541 0.22864109 4278214143
-2.282789 5.0972719 0.23408493 4278208767
-2.357003 5.2939162 0.24287881 4278199039
-2.3050094 5.2076826 0.23869124 4278203391
-2.1941772 5.0163064 0.2294786 4278213119
-2.2277646 5.1542296 0.23534119 4278207743
-2.0768661 4.8927903 0.2227785 4278220799
-2.0894892 4.9525423 0.22529104 4278217471
-2.0678601 4.9616122 0.22529104 4278217471
-2.0461915 4.9705877 0.22529104 4278217471
-2.0244837 4.9794688 0.22529104 4278217471
-2.0250728 5.0438857 0.22780357 4278215423
-2.0140638 5.0482922 0.22780357 4278215423
-2.0030456 5.0526738 0.22780357 4278215423
-1.9920179 5.0570316 0.22780357 4278215423
-1.9809799 5.0613656 0.22780357 4278215423
-1.8866456 4.8515015 0.21817218 4278225151
-1.8548524 4.8637457 0.21817218 4278225151
-1.844237 4.8677812 0.21817218 4278225151
-1.8123381 4.8797469 0.21817218 4278225151
-1.8016877 4.8836899 0.21817218 4278225151
-1.7803617 4.8915043 0.21817218 4278225151
-1.7696859 4.8953772 0.21817218 4278225151
-1.7590016 4.8992262 0.21817218 4278225151
-1.7376078 4.9068542 0.21817218 4278225151
-1.7268986 4.910634 0.21817218 4278225151
-1.7054558 4.9181218 0.21817218 4278225151
-1.6947218 4.9218307 0.21817218 4278225151
-1.6732302 4.9291787 0.21817218 4278225151
-1.5894762 4.8202391 0.21272834 4278230527
-1.5789566 4.8236957 0.21272834 4278230527
-1.637629 5.0777721 0.22361602 4278219775
-1.6265471 5.0813327 0.22361602 4278219775
-1.6043602 5.0883813 0.22361602 4278219775
-1.5458601 5.0960178 0.22319725 4278219775
-1.4541143 4.8314939 0.21147208 4278231807
-1.4330193 4.8377934 0.21147208 4278231807
-1.4118967 4.8439999 0.21147208 4278231807
-1.3695719 4.8561358 0.21147208 4278231807
-1.3643562 4.8783565 0.21230958 4278231807
-1.3537097 4.8813214 0.21230958 4278231807
-1.3245137 4.8168268 0.20937829 4278233855
-1.3034841 4.8225603 0.20937829 4278233855
-1.2929597 4.8253927 0.20937829 4278233855
-1.2824296 4.8282018 0.20937829 4278233855
