# .PCD v0.7 - Point Cloud Data file format
VERSION 0.7
FIELDS x y z rgb
SIZE 4 4 4 4
TYPE F F F U
COUNT 1 1 1 1
WIDTH 1111
HEIGHT 1
VIEWPOINT 0 0 0 1 0 0 0
POINTS 1111
DATA ascii
-1.9381499 8.4794083 -0.18219905 4294901811
-1.9011328 8.4877844 -0.18219905 4294901811
-1.84554 8.5000458 -0.18219905 4294901811
-1.8269923 8.5040512 -0.18219905 4294901811
-1.8084345 8.5080175 -0.18219905 4294901811
-1.7712941 8.5158272 -0.18219905 4294901811
-1.7527113 8.5196714 -0.18219905 4294901811
-1.7341204 8.5234747 -0.18219905 4294901811
-1.7155209 8.5272379 -0.18219905 4294901811
-1.6596732 8.5382833 -0.18219905 4294901811
-1.641042 8.5418835 -0.18219905 4294901811
-1.6224029 8.5454435 -0.18219905 4294901811
-1.5664384 8.5558786 -0.18219905 4294901811
-1.5477686 8.5592756 -0.18219905 4294901811
-1.5290916 8.5626326 -0.18219905 4294901811
-1.4730167 8.5724573 -0.18219905 4294901811
-1.4543111 8.5756502 -0.18219905 4294901811
-1.4355986 8.5788021 -0.18219905 4294901811
-1.4168792 8.5819139 -0.18219905 4294901811
-1.3794203 8.5880146 -0.18219905 4294901811
-1.3606808 8.5910034 -0.18219905 4294901811
-1.3419352 8.5939512 -0.18219905 4294901811
-1.2856593 8.6025505 -0.18219905 4294901811
-1.2668884 8.6053352 -0.18219905 4294901811
-1.2293286 8.6107807 -0.18219905 4294901811
-1.1917453 8.6160631 -0.18219905 4294901811
-1.1729455 8.6186428 -0.18219905 4294901811
-1.1541395 8.6211805 -0.18219905 4294901811
-1.1165113 8.6261339 -0.18219905 4294901811
-1.0976899 8.6285496 -0.18219905 4294901811
-1.0788624 8.6309242 -0.18219905 4294901811
-1.0411928 8.6355486 -0.18219905 4294901811
-1.0035033 8.6400099 -0.18219905 4294901811
-0.98465133 8.6421785 -0.18219905 4294901811
-0.9657948 8.6443062 -0.18219905 4294901811
-0.92806792 8.6484385 -0.18219905 4294901811
-0.90919781 8.6504421 -0.18219905 4294901811
-0.87144423 8.6543274 -0.18219905 4294901811
-0.85256147 8.656208 -0.18219905 4294901811
-0.81478381 8.6598454 -0.18219905 4294901811
-0.79588914 8.661602 -0.18219905 4294901811
-0.77699065 8.6633177 -0.18219905 4294901811
-0.73918247 8.666626 -0.18219905 4294901811
-0.72027278 8.6682177 -0.18219905 4294901811
-0.6824441 8.671278 -0.18219905 4294901811
-0.66352487 8.6727467 -0.18219905 4294901811
-0.62567639 8.675559 -0.18219905 4294901811
-0.60674763 8.6769037 -0.18219905 4294901811
-0.58781648 8.6782064 -0.18219905 4294901811
-0.54994464 8.6806889 -0.18219905 4294901811
-0.53100538 8.6818676 -0.18219905 4294901811
-0.47417164 8.6851568 -0.18219905 4294901811
-0.43627095 8.6871433 -0.18219905 4294901811
-0.41731763 8.6880741 -0.18219905 4294901811
-0.39836216 8.6889639 -0.18219905 4294901811
-0.36044598 8.6906195 -0.18219905 4294901811
-0.34148502 8.6913853 -0.18219905 4294901811
-0.30355859 8.6927919 -0.18219905 4294901811
-0.28459311 8.6934338 -0.18219905 4294901811
-0.24665856 8.6945925 -0.18219905 4294901811
-0.22768855 8.6951113 -0.18219905 4294901811
-0.20871854 8.6955872 -0.18219905 4294901811
-0.17077518 8.6964149 -0.18219905 4294901811
-0.13282847 8.6970768 -0.18219905 4294901811
-0.11385393 8.6973467 -0.18219905 4294901811
-0.094878912 8.6975737 -0.18219905 4294901811
-0.056927919 8.6979055 -0.18219905 4294901811
-0.037951946 8.6980085 -0.18219905 4294901811
-0.018975496 8.6980705 -0.18219905 4294901811
0.018976688 8.6980705 -0.18219905 4294901811
0.075904608 8.6977606 -0.18219905 4294901811
0.094880104 8.6975746 -0.18219905 4294901811
0.13282919 8.6970768 -0.18219905 4294901811
0.15180326 8.6967669 -0.18219905 4294901811
0.17077613 8.696414 -0.18219905 4294901811
0.18974853 8.6960211 -0.18219905 4294901811
0.20871997 8.6955872 -0.18219905 4294901811
0.26562715 8.6940346 -0.18219905 4294901811
0.28459406 8.6934338 -0.18219905 4294901811
0.34148598 8.6913862 -0.18219905 4294901811
0.36044669 8.6906195 -0.18219905 4294901811
0.37940598 8.6898127 -0.18219905 4294901811
0.41731858 8.6880741 -0.18219905 4294901811
0.43627238 8.6871433 -0.18219905 4294901811
0.45522308 8.6861706 -0.18219905 4294901811
0.47417259 8.6851568 -0.18219905 4294901811
0.49311948 8.6841021 -0.18219905 4294901811
0.54994595 8.6806889 -0.18219905 4294901811
0.56888294 8.6794682 -0.18219905 4294901811
0.62567735 8.675559 -0.18219905 4294901811
0.64460301 8.6741743 -0.18219905 4294901811
0.68244481 8.671277 -0.18219905 4294901811
0.75808918 8.6649923 -0.18219905 4294901811
0.83367574 8.6580477 -0.18219905 4294901811
0.87144554 8.6543274 -0.18219905 4294901811
0.89032412 8.6524048 -0.18219905 4294901811
0.51737171 4.8212557 -0.10157073 4278240511
0.52788895 4.820116 -0.10157073 4278240511
0.60676473 5.0324411 -0.10617808 4278231807
0.62627131 5.1005683 -0.10764404 4278228479
0.63739765 5.0991898 -0.10764404 4278228479
0.71519321 5.0888615 -0.10764404 4278228479
0.7262935 5.0872889 -0.10764404 4278228479
0.80389708 5.0756044 -0.10764404 4278228479
0.76581669 4.7678289 -0.10115188 4278241535
0.51426363 3.1576958 -0.067015745 4278255394
0.50486535 3.0579233 -0.064921498 4278255377
0.51318562 3.0666754 -0.065130927 4278255377
0.5182032 3.0556912 -0.064921498 4278255377
0.52825475 3.0742602 -0.065340348 4278255377
0.58182752 3.0645726 -0.065340348 4278255377
0.60187256 3.0606992 -0.065340348 4278255377
0.60854846 3.0593786 -0.065340348 4278255377
0.6152215 3.0580437 -0.065340348 4278255377
0.62189174 3.0566943 -0.065340348 4278255377
0.62855887 3.0553305 -0.065340348 4278255377
0.63522315 3.053952 -0.065340348 4278255377
0.64188433 3.0525587 -0.065340348 4278255377
0.6485424 3.051151 -0.065340348 4278255377
0.6551975 3.0497291 -0.065340348 4278255377
0.67514372 3.0453753 -0.065340348 4278255377
0.68178606 3.0438952 -0.065340348 4278255377
0.69506103 3.0408914 -0.065340348 4278255377
0.70169348 3.0393677 -0.065340348 4278255377
0.7083227 3.0378296 -0.065340348 4278255377
0.71494853 3.0362771 -0.065340348 4278255377
0.72157103 3.0347102 -0.065340348 4278255377
0.72819 3.0331287 -0.065340348 4278255377
0.74141753 3.0299227 -0.065340348 4278255377
0.74802595 3.0282977 -0.065340348 4278255377
0.76123232 3.0250051 -0.065340348 4278255377
0.79418403 3.0165212 -0.065340348 4278255377
0.84670866 3.0022016 -0.065340348 4278255377
0.85325634 3.0003471 -0.065340348 4278255377
0.8598001 2.9984787 -0.065340348 4278255377
0.87287515 2.9946983 -0.065340348 4278255377
0.87940651 2.9927871 -0.065340348 4278255377
0.88593376 2.9908614 -0.065340348 4278255377
0.89245665 2.9889216 -0.065340348 4278255377
0.89897531 2.9869671 -0.065340348 4278255377
0.91199988 2.9830163 -0.065340348 4278255377
0.91850561 2.9810195 -0.065340348 4278255377
0.92500693 2.9790084 -0.065340348 4278255377
0.93799651 2.9749441 -0.065340348 4278255377
0.94448459 2.9728909 -0.065340348 4278255377
0.95096815 2.970823 -0.065340348 4278255377
0.95744723 2.9687412 -0.065340348 4278255377
0.96392179 2.9666455 -0.065340348 4278255377
0.97685695 2.9624112 -0.065340348 4278255377
0.98331761 2.9602733 -0.065340348 4278255377
0.98977363 2.9581208 -0.065340348 4278255377
1.0348318 2.9426608 -0.065340348 4278255377
1.128251 3.1641266 -0.070366532 4278255419
1.2365042 3.4439485 -0.076649256 4278255470
1.8116388 5.0114269 -0.11162309 4278219775
1.8636012 5.1202011 -0.11413618 4278214143
1.9057268 5.2006097 -0.11602101 4278211071
1.9205288 5.2058201 -0.11623044 4278209791
1.9318814 5.2016172 -0.11623044 4278209791
1.943225 5.1973906 -0.11623044 4278209791
1.9545593 5.1931381 -0.11623044 4278209791
1.9658844 5.1888623 -0.11623044 4278209791
1.9885062 5.1802344 -0.11623044 4278209791
1.9998031 5.1758842 -0.11623044 4278209791
2.022368 5.1671095 -0.11623044 4278209791
2.0336359 5.1626849 -0.11623044 4278209791
2.0448945 5.158236 -0.11623044 4278209791
2.0561433 5.1537628 -0.11623044 4278209791
2.1122384 5.1310272 -0.11623044 4278209791
2.1457753 5.1170926 -0.11623044 4278209791
2.1569343 5.1123996 -0.11623044 4278209791
2.1680825 5.1076813 -0.11623044 4278209791
2.1903484 5.0981727 -0.11623044 4278209791
2.2014656 5.0933814 -0.11623044 4278209791
2.2125726 5.0885673 -0.11623044 4278209791
2.2638607 5.0550046 -0.11602101 4278211071
2.2584586 5.0135913 -0.11518331 4278212095
2.3106527 5.0997186 -0.11727755 4278207743
2.3715253 5.2038364 -0.11979064 4278203391
2.374594 5.0923319 -0.1176964 4278207743
2.3856981 5.0871396 -0.1176964 4278207743
2.3498788 4.9824548 -0.11539274 4278212095
2.4035878 5.0676484 -0.11748698 4278207743
2.414638 5.0623927 -0.11748698 4278207743
2.468915 5.1472573 -0.11958122 4278203391
2.4801385 5.1418581 -0.11958122 4278203391
2.4913504 5.1364355 -0.11958122 4278203391
2.5137386 5.1255159 -0.11958122 4278203391
2.5249147 5.1200194 -0.11958122 4278203391
2.547231 5.1089544 -0.11958122 4278203391
2.5583708 5.1033845 -0.11958122 4278203391
2.5694985 5.0977907 -0.11958122 4278203391
2.5806141 5.0921731 -0.11958122 4278203391
2.5917172 5.0865307 -0.11958122 4278203391
2.6138868 5.0751743 -0.11958122 4278203391
2.624953 5.069459 -0.11958122 4278203391
2.6360064 5.0637202 -0.11958122 4278203391
2.658076 5.0521703 -0.11958122 4278203391
2.6690917 5.04636 -0.11958122 4278203391
2.680095 5.040525 -0.11958122 4278203391
2.6910853 5.0346656 -0.11958122 4278203391
2.7130275 5.0228753 -0.11958122 4278203391
2.723979 5.0169449 -0.11958122 4278203391
2.7349181 5.0109897 -0.11958122 4278203391
2.7458436 5.0050111 -0.11958122 4278203391
2.7567563 4.9990087 -0.11958122 4278203391
2.7676558 4.9929829 -0.11958122 4278203391
2.7894156 4.9808588 -0.11958122 4278203391
2.8111219 4.9686403 -0.11958122 4278203391
2.8219552 4.9624958 -0.11958122 4278203391
2.8327751 4.9563274 -0.11958122 4278203391
2.8435812 4.9501352 -0.11958122 4278203391
2.8543739 4.9439201 -0.11958122 4278203391
2.8651533 4.9376807 -0.11958122 4278203391
2.8974087 4.9188232 -0.11958122 4278203391
2.908133 4.9124899 -0.11958122 4278203391
2.9188433 4.9061337 -0.11958122 4278203391
2.9295402 4.899754 -0.11958122 4278203391
2.9402225 4.8933511 -0.11958122 4278203391
2.9508915 4.8869252 -0.11958122 4278203391
2.9615459 4.880476 -0.11958122 4278203391
2.9721863 4.8740029 -0.11958122 4278203391
2.9934249 4.8609877 -0.11958122 4278203391
3.0040226 4.8544455 -0.11958122 4278203391
3.0146062 4.8478804 -0.11958122 4278203391
3.0251756 4.8412924 -0.11958122 4278203391
3.1196446 4.7809634 -0.11958122 4278203391
3.2129116 4.7187915 -0.11958122 4278203391
3.3049395 4.6548009 -0.11958122 4278203391
3.3956933 4.589015 -0.11958122 4278203391
3.4851382 4.5214605 -0.11958122 4278203391
3.5732393 4.4521632 -0.11958122 4278203391
3.6599627 4.3811488 -0.11958122 4278203391
3.7264409 4.3247466 -0.11958122 4278203391
3.735867 4.316607 -0.11958122 4278203391
3.7452755 4.3084464 -0.11958122 4278203391
3.7546663 4.3002653 -0.11958122 4278203391
3.7640388 4.2920628 -0.11958122 4278203391
3.7733939 4.2838411 -0.11958122 4278203391
3.7827306 4.2755985 -0.11958122 4278203391
3.7920499 4.2673359 -0.11958122 4278203391
3.8013501 4.2590528 -0.11958122 4278203391
3.9296427 4.1409783 -0.11958122 4278203391
3.9476733 4.1237931 -0.11958122 4278203391
3.9656296 4.1065288 -0.11958122 4278203391
3.9745791 4.097867 -0.11958122 4278203391
3.9835095 4.0891867 -0.11958122 4278203391
3.9924216 4.0804858 -0.11958122 4278203391
4.0013142 4.0717659 -0.11958122 4278203391
4.0101881 4.0630274 -0.11958122 4278203391
4.0190425 4.0542679 -0.11958122 4278203391
4.0366945 4.0366936 -0.11958122 4278203391
4.0454912 4.0278769 -0.11958122 4278203391
4.0542688 4.019042 -0.11958122 4278203391
4.0804863 3.9924207 -0.11958122 4278203391
4.0891871 3.9835093 -0.11958122 4278203391
4.097868 3.9745784 -0.11958122 4278203391
4.1065297 3.9656289 -0.11958122 4278203391
4.1151714 3.9566603 -0.11958122 4278203391
4.1237936 3.9476728 -0.11958122 4278203391
4.1323962 3.9386666 -0.11958122 4278203391
4.1409793 3.9296422 -0.11958122 4278203391
4.1495428 3.9205983 -0.11958122 4278203391
4.1580863 3.9115365 -0.11958122 4278203391
4.1666098 3.9024553 -0.11958122 4278203391
4.1751142 3.8933563 -0.11958122 4278203391
4.183598 3.8842382 -0.11958122 4278203391
4.1920624 3.875102 -0.11958122 4278203391
4.2005062 3.8659468 -0.11958122 4278203391
4.2089305 3.8567734 -0.11958122 4278203391
4.2173343 3.8475821 -0.11958122 4278203391
4.225719 3.838372 -0.11958122 4278203391
4.2340827 3.829144 -0.11958122 4278203391
4.2424269 3.8198972 -0.11958122 4278203391
4.2507501 3.8106327 -0.11958122 4278203391
4.2590532 3.8013501 -0.11958122 4278203391
4.2673364 3.7920492 -0.11958122 4278203391
4.2755995 3.7827296 -0.11958122 4278203391
4.2838416 3.7733932 -0.11958122 4278203391
4.2920637 3.7640386 -0.11958122 4278203391
4.3002653 3.7546651 -0.11958122 4278203391
4.3084469 3.7452753 -0.11958122 4278203391
4.3166075 3.7358665 -0.11958122 4278203391
4.3247471 3.7264404 -0.11958122 4278203391
4.3328667 3.716996 -0.11958122 4278203391
4.3409662 3.7075343 -0.11958122 4278203391
4.3490443 3.6980553 -0.11958122 4278203391
4.3571019 3.6885581 -0.11958122 4278203391
4.3651385 3.6790438 -0.11958122 4278203391
4.3731546 3.669512 -0.11958122 4278203391
4.3811498 3.6599622 -0.11958122 4278203391
4.3891239 3.6503954 -0.11958122 4278203391
4.4050102 3.6312099 -0.11958122 4278203391
4.4129219 3.6215904 -0.11958122 4278203391
4.4208121 3.6119545 -0.11958122 4278203391
4.4365301 3.5926306 -0.11958122 4278203391
4.4443579 3.5829434 -0.11958122 4278203391
4.4521637 3.5732386 -0.11958122 4278203391
4.4599485 3.5635166 -0.11958122 4278203391
4.4677124 3.5537786 -0.11958122 4278203391
4.4754548 3.5440226 -0.11958122 4278203391
4.4908762 3.5244613 -0.11958122 4278203391
4.4985547 3.5146556 -0.11958122 4278203391
4.5062118 3.5048327 -0.11958122 4278203391
4.5138474 3.4949937 -0.11958122 4278203391
4.5214615 3.4851377 -0.11958122 4278203391
4.5290542 3.475265 -0.11958122 4278203391
4.5366249 3.4653754 -0.11958122 4278203391
4.5441747 3.4554701 -0.11958122 4278203391
4.5517025 3.4455481 -0.11958122 4278203391
4.5666933 3.4256546 -0.11958122 4278203391
4.5741558 3.4156833 -0.11958122 4278203391
4.5815969 3.4056959 -0.11958122 4278203391
4.589016 3.3956928 -0.11958122 4278203391
4.5964131 3.385673 -0.11958122 4278203391
0.82087606 5.1828051 -0.1649065 4278223103
0.5199151 3.2368925 -0.1030273 4278255406
0.50448281 3.0976393 -0.098629795 4278255381
0.50472695 3.0570848 -0.097373359 4278255377
0.5229429 3.1249824 -0.099572115 4278255385
0.52474588 3.0942712 -0.098629795 4278255381
0.54498649 3.0907707 -0.098629795 4278255381
0.57866836 3.0846417 -0.098629795 4278255381
0.58539665 3.0833721 -0.098629795 4278255381
0.5921222 3.0820878 -0.098629795 4278255381
0.59884483 3.0807886 -0.098629795 4278255381
0.60556471 3.0794747 -0.098629795 4278255381
0.61228156 3.0781462 -0.098629795 4278255381
0.61899555 3.0768027 -0.098629795 4278255381
0.62570667 3.0754454 -0.098629795 4278255381
0.63241464 3.0740728 -0.098629795 4278255381
0.65252078 3.0698676 -0.098629795 4278255381
0.65921664 3.0684369 -0.098629795 4278255381
0.66590929 3.0669913 -0.098629795 4278255381
0.67928529 3.0640569 -0.098629795 4278255381
0.68596834 3.0625672 -0.098629795 4278255381
0.69264823 3.0610638 -0.098629795 4278255381
0.69932479 3.0595453 -0.098629795 4278255381
0.70599794 3.0580122 -0.098629795 4278255381
0.7193343 3.0549028 -0.098629795 4278255381
0.72599739 3.0533261 -0.098629795 4278255381
0.73265696 3.0517349 -0.098629795 4278255381
0.7459656 3.0485091 -0.098629795 4278255381
0.75261468 3.0468743 -0.098629795 4278255381
0.79960358 3.1484458 -0.10208497 4278255402
0.85858107 3.350019 -0.10868123 4278255436
1.3113439 5.07059 -0.16459239 4278224127
1.3400691 5.1354156 -0.16679114 4278220799
1.3512695 5.1324797 -0.16679114 4278220799
0.86661601 3.2342544 -0.10522605 4278255419
0.85019845 3.1455171 -0.10239908 4278255402
0.84654266 3.1050818 -0.10114265 4278255394
0.84271479 3.0646784 -0.099886224 4278255389
0.87609452 3.0553038 -0.099886224 4278255389
0.89607245 3.049504 -0.099886224 4278255389
0.90936989 3.0455654 -0.099886224 4278255389
0.91601205 3.0435741 -0.099886224 4278255389
0.92264998 3.0415685 -0.099886224 4278255389
0.92928338 3.0395484 -0.099886224 4278255389
0.93591249 3.037514 -0.099886224 4278255389
0.94253707 3.0354645 -0.099886224 4278255389
0.94915718 3.0334013 -0.099886224 4278255389
0.96238381 3.0292308 -0.099886224 4278255389
0.97559214 3.025003 -0.099886224 4278255389
0.9821893 3.0228672 -0.099886224 4278255389
0.99536967 3.0185528 -0.099886224 4278255389
1.0019528 3.0163741 -0.099886224 4278255389
1.0085311 3.0141811 -0.099886224 4278255389
1.0151047 3.0119734 -0.099886224 4278255389
1.0544431 2.9984283 -0.099886224 4278255389
1.0609822 2.9961207 -0.099886224 4278255389
1.0675162 2.9937987 -0.099886224 4278255389
1.1821251 3.2924902 -0.10993767 4278255445
1.1893054 3.2899034 -0.10993767 4278255445
1.19648 3.2873011 -0.10993767 4278255445
1.9567894 5.3399563 -0.17872724 4278204415
1.9961104 5.4106927 -0.1812401 4278201087
2.0667629 5.3841004 -0.1812401 4278201087
2.0785046 5.3795791 -0.1812401 4278201087
2.0902359 5.3750319 -0.1812401 4278201087
2.1019573 5.3704586 -0.1812401 4278201087
2.1136689 5.36586 -0.1812401 4278201087
2.2186131 5.3233266 -0.1812401 4278201087
2.3307168 5.5581279 -0.1894069 4278452479
2.3428373 5.5530295 -0.1894069 4278452479
2.2182579 5.2258868 -0.17841312 4278204415
2.2296538 5.2210355 -0.17841312 4278204415
2.3554583 5.4824762 -0.18752223 4278192383
2.3674135 5.4773245 -0.18752223 4278192383
2.370105 5.3233418 -0.18312474 4278197759
2.4280312 5.2971716 -0.18312474 4278197759
2.4395823 5.2918615 -0.18312474 4278197759
2.4626491 5.281167 -0.18312474 4278197759
2.4941962 5.2884517 -0.18375295 4278196735
2.5057278 5.2829976 -0.18375295 4278196735
2.5172474 5.2775178 -0.18375295 4278196735
2.5632062 5.2553506 -0.18375295 4278196735
2.5746653 5.2497454 -0.18375295 4278196735
2.5861123 5.2441158 -0.18375295 4278196735
2.5975471 5.238462 -0.18375295 4278196735
2.6937051 5.4027357 -0.189721 4278452479
2.7054858 5.3968463 -0.189721 4278452479
2.7172532 5.3909311 -0.189721 4278452479
2.729008 5.3849897 -0.189721 4278452479
2.7407498 5.3790231 -0.189721 4278452479
2.7524786 5.3730316 -0.189721 4278452479
2.764194 5.3670135 -0.189721 4278452479
2.7758965 5.3609705 -0.189721 4278452479
2.7875857 5.3549013 -0.189721 4278452479
2.7992616 5.3488073 -0.189721 4278452479
2.8109241 5.3426871 -0.189721 4278452479
2.8225734 5.3365421 -0.189721 4278452479
2.8342092 5.3303714 -0.189721 4278452479
2.8458314 5.3241754 -0.189721 4278452479
2.8574402 5.3179541 -0.189721 4278452479
2.8690355 5.3117075 -0.189721 4278452479
2.8806169 5.3054357 -0.189721 4278452479
2.8921847 5.2991381 -0.189721 4278452479
2.9037387 5.2928157 -0.189721 4278452479
2.9152789 5.2864685 -0.189721 4278452479
2.9268053 5.2800956 -0.189721 4278452479
2.9383178 5.2736983 -0.189721 4278452479
2.9498162 5.2672749 -0.189721 4278452479
2.9613008 5.2608266 -0.189721 4278452479
2.9727709 5.2543535 -0.189721 4278452479
2.9842269 5.2478557 -0.189721 4278452479
2.9956689 5.2413325 -0.189721 4278452479
3.0070968 5.2347846 -0.189721 4278452479
3.0185099 5.2282114 -0.189721 4278452479
3.0299091 5.2216144 -0.189721 4278452479
3.0412936 5.2149916 -0.189721 4278452479
3.0526638 5.208344 -0.189721 4278452479
3.0640192 5.2016716 -0.189721 4278452479
3.0753603 5.1949744 -0.189721 4278452479
3.0866866 5.1882529 -0.189721 4278452479
3.0979984 5.1815062 -0.189721 4278452479
3.1092951 5.1747351 -0.189721 4278452479
3.1205773 5.1679397 -0.189721 4278452479
3.1318445 5.1611195 -0.189721 4278452479
3.1430969 5.154274 -0.189721 4278452479
3.1543345 5.1474051 -0.189721 4278452479
3.1655567 5.1405106 -0.189721 4278452479
3.176764 5.1335926 -0.189721 4278452479
3.1879561 5.1266499 -0.189721 4278452479
3.1991332 5.1196828 -0.189721 4278452479
3.210295 5.1126909 -0.189721 4278452479
3.2214413 5.1056747 -0.189721 4278452479
3.2325726 5.0986347 -0.189721 4278452479
3.2436886 5.0915699 -0.189721 4278452479
3.2547886 5.0844812 -0.189721 4278452479
3.2658737 5.0773687 -0.189721 4278452479
3.2769427 5.0702314 -0.189721 4278452479
3.2879968 5.0630703 -0.189721 4278452479
3.2990346 5.0558844 -0.189721 4278452479
3.3100572 5.0486751 -0.189721 4278452479
3.3210638 5.0414414 -0.189721 4278452479
3.3320546 5.0341849 -0.189721 4278452479
3.3430295 5.0269032 -0.189721 4278452479
3.3539884 5.019598 -0.189721 4278452479
3.3649316 5.0122685 -0.189721 4278452479
3.3758588 5.0049152 -0.189721 4278452479
3.3867698 4.997539 -0.189721 4278452479
3.3976645 4.9901381 -0.189721 4278452479
3.4085433 4.9827137 -0.189721 4278452479
3.441082 4.9602981 -0.189721 4278452479
3.4518952 4.9527788 -0.189721 4278452479
3.4626923 4.9452367 -0.189721 4278452479
3.4734728 4.9376698 -0.189721 4278452479
3.4842372 4.9300809 -0.189721 4278452479
3.4949841 4.9224672 -0.189721 4278452479
3.5057151 4.9148302 -0.189721 4278452479
3.5164294 4.9071712 -0.189721 4278452479
3.5271268 4.8994875 -0.189721 4278452479
3.5378075 4.8917809 -0.189721 4278452479
3.548471 4.8840508 -0.189721 4278452479
3.5591183 4.876298 -0.189721 4278452479
3.5697479 4.8685212 -0.189721 4278452479
3.5803609 4.8607216 -0.189721 4278452479
3.5909569 4.8528991 -0.189721 4278452479
3.6015358 4.8450532 -0.189721 4278452479
3.6120973 4.837184 -0.189721 4278452479
3.622642 4.8292923 -0.189721 4278452479
3.6331692 4.8213778 -0.189721 4278452479
3.6436791 4.8134394 -0.189721 4278452479
3.6541717 4.805479 -0.189721 4278452479
3.6646469 4.7974954 -0.189721 4278452479
3.6751046 4.7894893 -0.189721 4278452479
3.6855452 4.7814598 -0.189721 4278452479
3.6959677 4.7734079 -0.189721 4278452479
3.706373 4.7653332 -0.189721 4278452479
3.7167606 4.7572355 -0.189721 4278452479
3.7271304 4.7491159 -0.189721 4278452479
3.7374825 4.740973 -0.189721 4278452479
3.7478166 4.7328081 -0.189721 4278452479
3.7581334 4.7246203 -0.189721 4278452479
3.7684317 4.7164097 -0.189721 4278452479
3.7787123 4.7081771 -0.189721 4278452479
3.7992196 4.6916447 -0.189721 4278452479
3.8094463 4.6833448 -0.189721 4278452479
3.8196547 4.6750231 -0.189721 4278452479
3.860306 4.6415129 -0.189721 4278452479
3.8704228 4.6330795 -0.189721 4278452479
3.8805218 4.6246247 -0.189721 4278452479
3.9107063 4.5991278 -0.189721 4278452479
3.9207306 4.5905848 -0.189721 4278452479
3.9307365 4.5820208 -0.189721 4278452479
4.4235282 5.1337562 -0.21296497 4286841087
4.4608808 5.1543236 -0.2142214 4287103231
4.4833279 5.1348104 -0.2142214 4287103231
4.4945197 5.1250167 -0.2142214 4287103231
4.5056906 5.1151991 -0.2142214 4287103231
4.516839 5.1053567 -0.2142214 4287103231
4.539072 5.0855999 -0.2142214 4287103231
4.5501566 5.0756855 -0.2142214 4287103231
4.5612192 5.0657463 -0.2142214 4287103231
4.5722599 5.0557833 -0.2142214 4287103231
4.6616411 5.1096239 -0.21736246 4288217343
4.6838918 5.0892348 -0.21736246 4288217343
4.6949835 5.0790038 -0.21736246 4288217343
4.7171001 5.0584702 -0.21736246 4288217343
4.7281251 5.0481668 -0.21736246 4288217343
4.7391272 5.0378394 -0.21736246 4288217343
4.7501068 5.0274882 -0.21736246 4288217343
4.7610636 5.0171132 -0.21736246 4288217343
4.7719979 5.0067139 -0.21736246 4288217343
4.7137923 4.9240909 -0.2142214 4287103231
4.7245235 4.9137955 -0.2142214 4287103231
4.7352328 4.9034762 -0.2142214 4287103231
4.7565827 4.8827682 -0.2142214 4287103231
4.7672243 4.8723793 -0.2142214 4287103231
4.7884383 4.851532 -0.2142214 4287103231
4.7990112 4.8410735 -0.2142214 4287103231
4.8095617 4.8305922 -0.2142214 4287103231
4.8200889 4.8200884 -0.2142214 4287103231
4.8305931 4.8095608 -0.2142214 4287103231
4.8410745 4.7990103 -0.2142214 4287103231
4.8017368 4.7392893 -0.21202263 4286578943
4.8120651 4.7288027 -0.21202263 4286578943
4.8223705 4.7182927 -0.21202263 4286578943
4.8429117 4.697207 -0.21202263 4286578943
4.8735514 4.66541 -0.21202263 4286578943
4.8938613 4.6441002 -0.21202263 4286578943
4.9039812 4.6334124 -0.21202263 4286578943
4.9140787 4.6227026 -0.21202263 4286578943
4.9241519 4.6119709 -0.21202263 4286578943
4.9342017 4.6012168 -0.21202263 4286578943
4.9442282 4.5904412 -0.21202263 4286578943
4.9542317 4.5796437 -0.21202263 4286578943
4.9741669 4.5579834 -0.21202263 4286578943
4.9840989 4.5471201 -0.21202263 4286578943
5.0038919 4.5253301 -0.21202263 4286578943
5.0137529 4.5144024 -0.21202263 4286578943
5.0235896 4.5034533 -0.21202263 4286578943
5.0334024 4.4924831 -0.21202263 4286578943
5.0431919 4.4814911 -0.21202263 4286578943
5.0529566 4.4704781 -0.21202263 4286578943
5.0626979 4.459444 -0.21202263 4286578943
5.0724149 4.4483876 -0.21202263 4286578943
5.0821075 4.4373112 -0.21202263 4286578943
5.1014209 4.4150939 -0.21202263 4286578943
5.1110401 4.4039536 -0.21202263 4286578943
5.130208 4.3816109 -0.21202263 4286578943
5.1397548 4.3704081 -0.21202263 4286578943
5.1492777 4.3591847 -0.21202263 4286578943
5.1587753 4.34794 -0.21202263 4286578943
5.1682487 4.3366752 -0.21202263 4286578943
5.1776977 4.3253894 -0.21202263 4286578943
5.1871214 4.3140831 -0.21202263 4286578943
5.1965218 4.3027563 -0.21202263 4286578943
5.2058964 4.2914085 -0.21202263 4286578943
5.2245712 4.2686529 -0.21202263 4286578943
4.6523304 3.7842174 -0.18846457 4278190335
4.6605754 3.7740588 -0.18846457 4278190335
4.6687975 3.7638822 -0.18846457 4278190335
4.6769981 3.7536871 -0.18846457 4278190335
4.6851764 3.7434745 -0.18846457 4278190335
4.6933322 3.7332444 -0.18846457 4278190335
4.7014656 3.7229962 -0.18846457 4278190335
4.7095766 3.7127302 -0.18846457 4278190335
4.7176657 3.7024469 -0.18846457 4278190335
4.7257318 3.6921458 -0.18846457 4278190335
4.7337756 3.6818266 -0.18846457 4278190335
4.741797 3.6714907 -0.18846457 4278190335
4.7497954 3.6611371 -0.18846457 4278190335
4.7577715 3.6507654 -0.18846457 4278190335
4.7657247 3.6403775 -0.18846457 4278190335
4.7736554 3.6299713 -0.18846457 4278190335
4.7815638 3.6195488 -0.18846457 4278190335
4.7894487 3.6091075 -0.18846457 4278190335
4.7973113 3.5986502 -0.18846457 4278190335
4.805151 3.5881753 -0.18846457 4278190335
4.8129673 3.5776834 -0.18846457 4278190335
4.8207612 3.5671754 -0.18846457 4278190335
4.8285322 3.5566492 -0.18846457 4278190335
4.8362808 3.5461068 -0.18846457 4278190335
4.8440051 3.535547 -0.18846457 4278190335
4.851707 3.524971 -0.18846457 4278190335
4.8593855 3.5143781 -0.18846457 4278190335
4.8670416 3.5037675 -0.18846457 4278190335
4.8746738 3.4931412 -0.18846457 4278190335
4.8822827 3.4824982 -0.18846457 4278190335
4.8898687 3.471838 -0.18846457 4278190335
4.8974319 3.4611621 -0.18846457 4278190335
4.9049711 3.450469 -0.18846457 4278190335
4.9124875 3.4397597 -0.18846457 4278190335
4.91998 3.4290342 -0.18846457 4278190335
4.9274492 3.4182925 -0.18846457 4278190335
4.934895 3.4075341 -0.18846457 4278190335
4.9423175 3.39676 -0.18846457 4278190335
4.9497166 3.3859696 -0.18846457 4278190335
4.9570913 3.3751626 -0.18846457 4278190335
4.9644427 3.3643398 -0.18846457 4278190335
4.9717712 3.3535016 -0.18846457 4278190335
4.9790754 3.3426471 -0.18846457 4278190335
4.9863558 3.3317759 -0.18846457 4278190335
4.9936132 3.320889 -0.18846457 4278190335
5.0008464 3.3099871 -0.18846457 4278190335
5.0080557 3.2990689 -0.18846457 4278190335
5.0152416 3.2881355 -0.18846457 4278190335
5.0224028 3.2771866 -0.18846457 4278190335
5.0295405 3.2662213 -0.18846457 4278190335
5.0366545 3.2552409 -0.18846457 4278190335
5.0437441 3.2442446 -0.18846457 4278190335
5.0508103 3.2332332 -0.18846457 4278190335
5.0578518 3.2222061 -0.18846457 4278190335
5.0648699 3.211164 -0.18846457 4278190335
5.0718627 3.2001064 -0.18846457 4278190335
5.0788326 3.189034 -0.18846457 4278190335
5.0857782 3.1779461 -0.18846457 4278190335
5.0926991 3.1668429 -0.18846457 4278190335
5.099596 3.1557255 -0.18846457 4278190335
5.1064687 3.1445918 -0.18846457 4278190335
5.113317 3.1334438 -0.18846457 4278190335
5.120141 3.1222811 -0.18846457 4278190335
5.1269403 3.1111031 -0.18846457 4278190335
5.1337156 3.0999105 -0.18846457 4278190335
5.1404662 3.0887032 -0.18846457 4278190335
5.1471925 3.0774813 -0.18846457 4278190335
5.1538944 3.0662441 -0.18846457 4278190335
5.1605716 3.0549929 -0.18846457 4278190335
5.1672249 3.0437274 -0.18846457 4278190335
5.173852 3.0324466 -0.18846457 4278190335
5.1804557 3.021152 -0.18846457 4278190335
5.1870346 3.0098426 -0.18846457 4278190335
5.1935887 2.9985187 -0.18846457 4278190335
5.2001185 2.9871812 -0.18846457 4278190335
5.2066226 2.9758294 -0.18846457 4278190335
5.2131023 2.9644632 -0.18846457 4278190335
5.2195578 2.953083 -0.18846457 4278190335
5.2259879 2.9416888 -0.18846457 4278190335
5.2323933 2.9302804 -0.18846457 4278190335
5.2387733 2.9188581 -0.18846457 4278190335
5.2451296 2.9074221 -0.18846457 4278190335
5.2514596 2.8959718 -0.18846457 4278190335
5.2577653 2.8845077 -0.18846457 4278190335
5.2640452 2.8730307 -0.18846457 4278190335
5.2703009 2.8615394 -0.18846457 4278190335
5.2765312 2.8500347 -0.18846457 4278190335
5.2827368 2.838516 -0.18846457 4278190335
5.2889166 2.8269839 -0.18846457 4278190335
5.2950716 2.8154387 -0.18846457 4278190335
5.3012013 2.8038802 -0.18846457 4278190335
5.3073058 2.7923079 -0.18846457 4278190335
5.313385 2.7807226 -0.18846457 4278190335
5.3194389 2.7691236 -0.18846457 4278190335
5.3254676 2.7575123 -0.18846457 4278190335
5.3314705 2.745887 -0.18846457 4278190335
5.3374481 2.7342491 -0.18846457 4278190335
5.3434014 2.7225983 -0.18846457 4278190335
5.3493285 2.7109344 -0.18846457 4278190335
5.3552299 2.6992574 -0.18846457 4278190335
5.3611064 2.6875677 -0.18846457 4278190335
5.3669572 2.6758657 -0.18846457 4278190335
5.3727818 2.6641505 -0.18846457 4278190335
5.3785815 2.6524224 -0.18846457 4278190335
5.3843551 2.6406813 -0.18846457 4278190335
5.3901033 2.6289289 -0.18846457 4278190335
5.3958263 2.6171629 -0.18846457 4278190335
5.4015231 2.6053846 -0.18846457 4278190335
5.4071941 2.5935946 -0.18846457 4278190335
5.4128394 2.5817914 -0.18846457 4278190335
5.4184594 2.5699763 -0.18846457 4278190335
5.4240532 2.5581491 -0.18846457 4278190335
5.4296207 2.5463095 -0.18846457 4278190335
5.4351635 2.5344579 -0.18846457 4278190335
5.44068 2.522594 -0.18846457 4278190335
5.4461708 2.5107183 -0.18846457 4278190335
5.4516354 2.4988308 -0.18846457 4278190335
5.4570732 2.4869311 -0.18846457 4278190335
5.4624863 2.4750195 -0.18846457 4278190335
5.4678726 2.4630966 -0.18846457 4278190335
5.4732332 2.4511619 -0.18846457 4278190335
5.4785681 2.4392152 -0.18846457 4278190335
5.4838767 2.4272568 -0.18846457 4278190335
5.4891596 2.415287 -0.18846457 4278190335
5.4944153 2.403306 -0.18846457 4278190335
5.4996452 2.3913131 -0.18846457 4278190335
5.5048494 2.3793092 -0.18846457 4278190335
5.5100269 2.3672943 -0.18846457 4278190335
5.5151787 2.3552675 -0.18846457 4278190335
5.5203037 2.3432293 -0.18846457 4278190335
5.5254035 2.3311803 -0.18846457 4278190335
5.5304756 2.3191204 -0.18846457 4278190335
5.535522 2.3070493 -0.18846457 4278190335
5.5405416 2.2949672 -0.18846457 4278190335
5.5455356 2.2828739 -0.18846457 4278190335
5.5505028 2.2707701 -0.18846457 4278190335
5.5554438 2.2586555 -0.18846457 4278190335
5.560358 2.2465301 -0.18846457 4278190335
5.5652461 2.2343936 -0.18846457 4278190335
5.5701075 2.2222471 -0.18846457 4278190335
5.5749426 2.2100897 -0.18846457 4278190335
5.5797505 2.1979218 -0.18846457 4278190335
5.5845327 2.1857433 -0.18846457 4278190335
5.5892878 2.1735544 -0.18846457 4278190335
5.5940166 2.1613555 -0.18846457 4278190335
5.5987186 2.1491463 -0.18846457 4278190335
5.603394 2.1369267 -0.18846457 4278190335
5.6080427 2.1246967 -0.18846457 4278190335
5.6126642 2.112457 -0.18846457 4278190335
5.61726 2.1002069 -0.18846457 4278190335
5.6218281 2.0879469 -0.18846457 4278190335
5.6263704 2.0756774 -0.18846457 4278190335
5.6308851 2.0633972 -0.18846457 4278190335
5.6353736 2.0511076 -0.18846457 4278190335
5.6398349 2.0388083 -0.18846457 4278190335
5.6442695 2.0264993 -0.18846457 4278190335
5.6486778 2.0141804 -0.18846457 4278190335
5.6530585 2.0018525 -0.18846457 4278190335
5.6574121 1.9895145 -0.18846457 4278190335
5.6617389 1.977167 -0.18846457 4278190335
5.6660395 1.9648105 -0.18846457 4278190335
5.6703124 1.9524442 -0.18846457 4278190335
5.6745586 1.9400691 -0.18846457 4278190335
5.6787777 1.9276847 -0.18846457 4278190335
5.6829691 1.915291 -0.18846457 4278190335
5.6871347 1.9028877 -0.18846457 4278190335
5.6912718 1.8904762 -0.18846457 4278190335
5.6953831 1.8780551 -0.18846457 4278190335
5.6994667 1.865625 -0.18846457 4278190335
5.7035236 1.8531865 -0.18846457 4278190335
5.7075529 1.8407389 -0.18846457 4278190335
5.7115545 1.828283 -0.18846457 4278190335
-6.8714247 5.225153 -0.36180568 4294901824
-6.8838282 5.2583265 -0.36306193 4294901819
-6.8723397 5.2733321 -0.36306193 4294901819
-6.8608193 5.2883129 -0.36306193 4294901819
-6.8492661 5.3032684 -0.36306193 4294901819
-6.8260603 5.3331032 -0.36306193 4294901819
-6.7556677 5.4219971 -0.36306193 4294901819
-6.7438226 5.4367228 -0.36306193 4294901819
-6.7319455 5.4514222 -0.36306193 4294901819
-6.7080951 5.4807439 -0.36306193 4294901819
-6.6961217 5.4953656 -0.36306193 4294901819
-6.6841173 5.5099611 -0.36306193 4294901819
-6.6600118 5.5390739 -0.36306193 4294901819
-6.5746479 5.6401329 -0.36306193 4294901819
-6.5623274 5.6544633 -0.36306193 4294901819
-6.5499754 5.668767 -0.36306193 4294901819
-6.5375929 5.6830435 -0.36306193 4294901819
-6.5251784 5.6972923 -0.36306193 4294901819
-6.5127335 5.7115145 -0.36306193 4294901819
-6.500257 5.7257094 -0.36306193 4294901819
-6.4877501 5.7398767 -0.36306193 4294901819
-6.4374142 5.7962742 -0.36306193 4294901819
-6.3993402 5.8382826 -0.36306193 4294901819
-6.3738046 5.8661489 -0.36306193 4294901819
-6.3609915 5.8800402 -0.36306193 4294901819
-6.3352747 5.9077396 -0.36306193 4294901819
-2.3331296 8.3422775 -0.36306193 4294901819
-2.1505883 8.3911896 -0.36306193 4294901819
-1.9670241 8.4361076 -0.36306193 4294901819
-1.5971737 8.5138788 -0.36306193 4294901819
-1.4110646 8.5466948 -0.36306193 4294901819
-0.83025336 8.6225157 -0.36306193 4294901819
0.56654811 8.6438484 -0.36306193 4294901819
0.60425866 8.6412935 -0.36306193 4294901819
0.62310958 8.6399555 -0.36306193 4294901819
0.64195752 8.6385756 -0.36306193 4294901819
0.67964447 8.6356916 -0.36306193 4294901819
0.69848275 8.6341887 -0.36306193 4294901819
0.71731794 8.6326447 -0.36306193 4294901819
0.77380276 8.6277637 -0.36306193 4294901819
0.79262376 8.6260567 -0.36306193 4294901819
0.86786902 8.6188107 -0.36306193 4294901819
0.90546751 8.6149426 -0.36306193 4294901819
0.92426002 8.6129456 -0.36306193 4294901819
0.94304883 8.6109095 -0.36306193 4294901819
0.96183217 8.6088305 -0.36306193 4294901819
0.98061144 8.6067114 -0.36306193 4294901819
0.99938607 8.6045513 -0.36306193 4294901819
1.0181559 8.6023512 -0.36306193 4294901819
1.0556809 8.597827 -0.36306193 4294901819
1.2242846 8.5754433 -0.36306193 4294901819
1.2429905 8.572752 -0.36306193 4294901819
1.2616901 8.5700188 -0.36306193 4294901819
1.2803841 8.5672464 -0.36306193 4294901819
1.299072 8.5644331 -0.36306193 4294901819
1.3177536 8.5615778 -0.36306193 4294901819
1.3364289 8.5586834 -0.36306193 4294901819
1.3737602 8.5527706 -0.36306193 4294901819
0.50910723 3.126034 -0.13274583 4278255385
0.52569103 3.1840627 -0.13525838 4278255398
0.52768934 3.1533456 -0.1340021 4278255394
0.52955604 3.1226354 -0.13274583 4278255385
0.55678564 3.1178951 -0.13274583 4278255385
0.59076273 3.1116359 -0.13274583 4278255385
0.59754992 3.1103399 -0.13274583 4278255385
0.60433424 3.1090288 -0.13274583 4278255385
0.61111569 3.1077032 -0.13274583 4278255385
0.61789405 3.1063623 -0.13274583 4278255385
0.62466967 3.1050069 -0.13274583 4278255385
0.63144231 3.103637 -0.13274583 4278255385
0.63821179 3.1022515 -0.13274583 4278255385
0.6449784 3.100852 -0.13274583 4278255385
0.66525948 3.0965643 -0.13274583 4278255385
0.67201352 3.0951054 -0.13274583 4278255385
0.68551207 3.0921438 -0.13274583 4278255385
0.69225639 3.090641 -0.13274583 4278255385
0.69899744 3.0891232 -0.13274583 4278255385
0.70573521 3.0875912 -0.13274583 4278255385
0.71246958 3.0860438 -0.13274583 4278255385
0.71920061 3.084482 -0.13274583 4278255385
0.73265231 3.0813146 -0.13274583 4278255385
0.73937303 3.0797091 -0.13274583 4278255385
0.75951362 3.0748038 -0.13274583 4278255385
0.80731046 3.2379448 -0.13986468 4278255415
0.94847608 3.7690794 -0.16289631 4278255509
0.95669669 3.7670014 -0.16289631 4278255509
0.96491265 3.764905 -0.16289631 4278255509
1.3900086 5.3267941 -0.23073488 4278212095
1.4016266 5.3237491 -0.23073488 4278212095
1.4480311 5.3113151 -0.23073488 4278212095
0.88477564 3.2176402 -0.13986468 4278255415
0.88111329 3.177191 -0.13818966 4278255411
0.88266063 3.1560171 -0.13735215 4278255406
0.90329772 3.1501727 -0.13735215 4278255406
0.93075341 3.1421702 -0.13735215 4278255406
0.94445485 3.1380792 -0.13735215 4278255406
0.95813817 3.1339281 -0.13735215 4278255406
0.96497315 3.1318305 -0.13735215 4278255406
0.97862905 3.1275899 -0.13735215 4278255406
0.98545009 3.1254478 -0.13735215 4278255406
0.99226636 3.1232901 -0.13735215 4278255406
0.99907798 3.1211181 -0.13735215 4278255406
1.0058849 3.1189311 -0.13735215 4278255406
1.0126868 3.116729 -0.13735215 4278255406
1.0262766 3.1122808 -0.13735215 4278255406
1.033064 3.1100342 -0.13735215 4278255406
1.0398467 3.1077733 -0.13735215 4278255406
1.0466242 3.1054969 -0.13735215 4278255406
1.0939263 3.0891521 -0.13735215 4278255406
1.1006632 3.0867579 -0.13735215 4278255406
1.2154334 3.3852615 -0.15075237 4278255462
1.222816 3.382602 -0.15075237 4278255462
1.2301928 3.379926 -0.15075237 4278255462
1.2375636 3.377234 -0.15075237 4278255462
2.1590638 5.6245522 -0.25251022 4278452479
2.1677284 5.6105084 -0.25209147 4278190335
2.2585497 5.5206299 -0.24999766 4278192383
2.2705884 5.5156894 -0.24999766 4278192383
2.2826166 5.5107231 -0.24999766 4278192383
2.2946334 5.5057292 -0.24999766 4278192383
2.3066397 5.50071 -0.24999766 4278192383
2.3306189 5.4905934 -0.24999766 4278192383
2.3425922 5.4854956 -0.24999766 4278192383
2.3545539 5.4803715 -0.24999766 4278192383
2.3665047 5.4752216 -0.24999766 4278192383
2.5099163 5.7724109 -0.26381665 4281532671
2.535079 5.761404 -0.26381665 4281532671
2.5476422 5.7558599 -0.26381665 4281532671
2.5318956 5.6535029 -0.25962907 4280418559
2.4776907 5.4367948 -0.25041643 4278191359
2.5061984 5.4677067 -0.25209147 4278190335
2.4930239 5.4077854 -0.24957891 4278192383
2.5283642 5.3913531 -0.24957891 4278192383
2.5401201 5.3858247 -0.24957891 4278192383
2.563596 5.3746896 -0.24957891 4278192383
2.6660566 5.5582628 -0.25837281 4279828735
2.6998794 5.5974283 -0.26046658 4280418559
2.809257 5.5433407 -0.26046658 4280418559
4.4208646 5.4837308 -0.29522339 4289921279
4.2910757 5.2286901 -0.2834982 4286578943
4.366025 5.2964106 -0.28768575 4287693055
4.3720274 5.1873531 -0.2843357 4286841087
4.4285231 5.2311821 -0.287267 4287693055
4.462666 5.202085 -0.287267 4287693055
4.4966178 5.1727662 -0.287267 4287693055
4.5726852 5.1458139 -0.28852326 4287955199
4.5950947 5.1258135 -0.28852326 4287955199
4.6554151 5.1252117 -0.2901983 4288479487
4.8225365 4.6570687 -0.28098565 4285989119
4.6938014 4.473753 -0.27177301 4283498751
4.8564596 4.2966318 -0.27177301 4283498751
5.0124373 4.1136003 -0.27177301 4283498751
5.1009827 4.0032759 -0.27177301 4283498751
5.1529465 3.9361629 -0.27177301 4283498751
5.1870995 3.8910458 -0.27177301 4283498751
5.2707481 3.7769644 -0.27177301 4283498751
-1.7531197 5.6459694 -0.30982888 4278194687
-1.7084523 5.5448017 -0.30407193 4278199039
-1.6157734 5.6348724 -0.30721208 4278196735
-1.5627208 5.5876236 -0.30407193 4278199039
-1.5345142 5.5332818 -0.30093175 4278201087
-1.6018705 5.8254838 -0.31663257 4278714623
-1.6127981 5.9156756 -0.32134277 4279566591
-1.475831 5.5078778 -0.29883832 4278203391
-1.4997014 5.6462069 -0.30616537 4278196735
-1.429665 5.4787679 -0.29674488 4278205439
-1.4102075 5.4528694 -0.29517481 4278206719
-1.3305967 5.5960913 -0.30145514 4278201087
-1.3160959 5.5892601 -0.30093175 4278201087
-1.3401812 5.747725 -0.30930552 4278194687
-1.1428033 5.6170592 -0.30040839 4278202111
-1.1325158 5.6293292 -0.30093175 4278201087
-1.1533515 5.7982917 -0.30982888 4278194687
-1.1272107 5.7322035 -0.30616537 4278196735
-1.1108917 5.7150435 -0.30511865 4278197759
-1.0984205 5.7174535 -0.30511865 4278197759
-1.0107181 5.5205374 -0.29412809 4278207743
-0.98310959 5.5052333 -0.29308137 4278207743
-0.96508527 5.6908264 -0.30250186 4278200063
-0.92299962 5.5156298 -0.29308137 4278207743
-0.62854695 5.5166888 -0.29098794 4278209791
-0.63314247 5.6669149 -0.29883832 4278203391
-0.50936866 5.6793785 -0.29883832 4278203391
-0.38535237 5.6891384 -0.29883832 4278203391
-0.34810925 5.6915388 -0.29883832 4278203391
-0.22386599 5.6977777 -0.29883832 4278203391
-0.18656945 5.699122 -0.29883832 4278203391
-0.062199354 5.7018356 -0.29883832 4278203391
-0.024880052 5.7021198 -0.29883832 4278203391
0.12439275 5.7008176 -0.29883832 4278203391
0.16170156 5.6998816 -0.29883832 4278203391
0.3729403 5.6899657 -0.29883832 4278203391
0.38535321 5.6891384 -0.29883832 4278203391
0.39776385 5.6882839 -0.29883832 4278203391
0.41017282 5.6874032 -0.29883832 4278203391
0.42257977 5.6864944 -0.29883832 4278203391
0.43498504 5.6855593 -0.29883832 4278203391
0.53414536 5.6771016 -0.29883832 4278203391
0.54652965 5.6759233 -0.29883832 4278203391
0.5589112 5.6747174 -0.29883832 4278203391
0.57129014 5.6734843 -0.29883832 4278203391
0.6084106 5.6696239 -0.29883832 4278203391
0.62077832 5.668283 -0.29883832 4278203391
0.69492054 5.6596718 -0.29883832 4278203391
0.70726645 5.6581416 -0.29883832 4278203391
0.711438 5.4965434 -0.29046458 4278209791
0.72603488 5.5147796 -0.2915113 4278209791
0.79905581 5.7769966 -0.30564201 4278197759
0.81165731 5.7752395 -0.30564201 4278197759
0.92489016 5.7581911 -0.30564201 4278197759
0.52490795 3.2230546 -0.17113858 4278255402
0.53681862 3.2514608 -0.17270866 4278255411
0.53237331 3.1813364 -0.16904515 4278255398
0.53096414 3.1309388 -0.16642836 4278255389
0.53779364 3.1297731 -0.16642836 4278255389
0.54290777 3.1187539 -0.165905 4278255385
0.55651063 3.1163554 -0.165905 4278255385
0.59047103 3.1100996 -0.165905 4278255385
0.59725487 3.1088042 -0.165905 4278255385
0.61081386 3.1061683 -0.165905 4278255385
0.617589 3.1048284 -0.165905 4278255385
0.62436122 3.1034734 -0.165905 4278255385
0.63113052 3.1021042 -0.165905 4278255385
0.63789666 3.1007197 -0.165905 4278255385
0.64465988 3.0993209 -0.165905 4278255385
0.65141994 3.0979068 -0.165905 4278255385
0.65817702 3.0964785 -0.165905 4278255385
0.66493094 3.0950351 -0.165905 4278255385
0.67842913 3.0921042 -0.165905 4278255385
0.68517351 3.0906172 -0.165905 4278255385
0.69865227 3.0875978 -0.165905 4278255385
0.7053867 3.0860662 -0.165905 4278255385
0.71211773 3.0845201 -0.165905 4278255385
0.71884543 3.0829589 -0.165905 4278255385
0.72556973 3.0813835 -0.165905 4278255385
0.73900783 3.0781882 -0.165905 4278255385
0.74572158 3.0765686 -0.165905 4278255385
0.80465114 3.2883368 -0.1774189 4278255424
0.81899154 3.2847946 -0.1774189 4278255424
0.8261559 3.2829998 -0.1774189 4278255424
0.8404727 3.2793641 -0.1774189 4278255424
0.84762514 3.2775223 -0.1774189 4278255424
0.86191791 3.2737927 -0.1774189 4278255424
0.86905825 3.2719045 -0.1774189 4278255424
0.87619436 3.2700009 -0.1774189 4278255424
0.88332623 3.2680814 -0.1774189 4278255424
0.89045399 3.2661467 -0.1774189 4278255424
0.89757752 3.2641959 -0.1774189 4278255424
0.91181159 3.2602484 -0.1774189 4278255424
0.94060779 3.3351426 -0.18160579 4278255436
0.93149173 3.27545 -0.17846562 4278255428
0.91386205 3.1870151 -0.17375538 4278255411
0.94857198 3.1768568 -0.17375538 4278255411
0.9693439 3.1705804 -0.17375538 4278255411
0.97625875 3.168458 -0.17375538 4278255411
0.99007446 3.1641684 -0.17375538 4278255411
0.99697524 3.1620007 -0.17375538 4278255411
1.0038713 3.1598182 -0.17375538 4278255411
1.0107625 3.1576204 -0.17375538 4278255411
1.0176489 3.1554077 -0.17375538 4278255411
1.0245305 3.1531801 -0.17375538 4278255411
1.0382792 3.14868 -0.17375538 4278255411
1.0451461 3.1464071 -0.17375538 4278255411
1.0588648 3.1418169 -0.17375538 4278255411
1.0657166 3.1394992 -0.17375538 4278255411
1.1067201 3.1252809 -0.17375538 4278255411
1.2047095 3.3553932 -0.18683937 4278255453
1.2120271 3.352757 -0.18683937 4278255453
1.2193388 3.3501048 -0.18683937 4278255453
1.2266446 3.3474367 -0.18683937 4278255453
1.2485271 3.3393366 -0.18683937 4278255453
1.2558094 3.3366048 -0.18683937 4278255453
1.2703562 3.3310938 -0.18683937 4278255453
1.2776204 3.3283143 -0.18683937 4278255453
1.2848786 3.3255191 -0.18683937 4278255453
1.3138499 3.3141799 -0.18683937 4278255453
1.3355129 3.3055098 -0.18683937 4278255453
1.3427212 3.3025885 -0.18683937 4278255453
1.3499233 3.2996514 -0.18683937 4278255453
1.3571187 3.2966983 -0.18683937 4278255453
1.3643078 3.2937295 -0.18683937 4278255453
1.3714902 3.2907453 -0.18683937 4278255453
1.3858358 3.2847297 -0.18683937 4278255453
1.3929987 3.2816987 -0.18683937 4278255453
1.4001548 3.2786515 -0.18683937 4278255453
1.4073045 3.2755892 -0.18683937 4278255453
1.4287128 3.2663083 -0.18683937 4278255453
1.4358355 3.2631836 -0.18683937 4278255453
1.4429511 3.2600431 -0.18683937 4278255453
1.4500601 3.2568874 -0.18683937 4278255453
1.4642571 3.2505295 -0.18683937 4278255453
1.499627 3.2343636 -0.18683937 4278255453
1.5137252 3.2277896 -0.18683937 4278255453
1.5277947 3.221154 -0.18683937 4278255453
1.5628405 3.2042973 -0.18683937 4278255453
1.5768069 3.1974473 -0.18683937 4278255453
1.5907433 3.190537 -0.18683937 4278255453
1.6254513 3.1729951 -0.18683937 4278255453
1.6392807 3.1658726 -0.18683937 4278255453
1.6530787 3.1586897 -0.18683937 4278255453
1.6874356 3.1404698 -0.18683937 4278255453
1.7011224 3.1330771 -0.18683937 4278255453
1.7147768 3.1256249 -0.18683937 4278255453
1.7487693 3.1067338 -0.18683937 4278255453
1.7623084 3.0990739 -0.18683937 4278255453
1.7758138 3.0913548 -0.18683937 4278255453
1.8094289 3.0718005 -0.18683937 4278255453
1.8228149 3.0638759 -0.18683937 4278255453
1.8361661 3.0558932 -0.18683937 4278255453
1.869391 3.0356824 -0.18683937 4278255453
1.8826189 3.0274968 -0.18683937 4278255453
1.8958108 3.0192537 -0.18683937 4278255453
1.9286323 2.998394 -0.18683937 4278255453
1.9416969 2.9899504 -0.18683937 4278255453
1.9547246 2.9814496 -0.18683937 4278255453
1.9871302 2.95995 -0.18683937 4278255453
2.0000262 2.9512515 -0.18683937 4278255453
2.0128846 2.9424963 -0.18683937 4278255453
2.0448618 2.9203649 -0.18683937 4278255453
2.0575848 2.9114144 -0.18683937 4278255453
2.0702686 2.9024091 -0.18683937 4278255453
2.1018052 2.8796537 -0.18683937 4278255453
2.1143501 2.8704555 -0.18683937 4278255453
2.1268544 2.8612027 -0.18683937 4278255453
2.1579382 2.8378322 -0.18683937 4278255453
2.1703 2.8283896 -0.18683937 4278255453
2.1826205 2.818893 -0.18683937 4278255453
4.1669745 5.2857814 -0.35274434 4286251263
4.1784964 5.2766776 -0.35274434 4286251263
4.1899986 5.2675495 -0.35274434 4286251263
4.2014804 5.2583957 -0.35274434 4286251263
4.2129421 5.2492166 -0.35274434 4286251263
4.2243843 5.2400131 -0.35274434 4286251263
4.2358065 5.2307839 -0.35274434 4286251263
4.2472081 5.2215309 -0.35274434 4286251263
4.2585897 5.2122526 -0.35274434 4286251263
4.281292 5.1936216 -0.35274434 4286251263
4.2926121 5.1842685 -0.35274434 4286251263
4.3151917 5.1654892 -0.35274434 4286251263
4.3264513 5.1560626 -0.35274434 4286251263
4.3376894 5.1466112 -0.35274434 4286251263
4.3489075 5.137136 -0.35274434 4286251263
4.3601046 5.127636 -0.35274434 4286251263
4.3712807 5.1181111 -0.35274434 4286251263
4.3824368 5.1085625 -0.35274434 4286251263
4.3935709 5.0989895 -0.35274434 4286251263
4.404685 5.0893922 -0.35274434 4286251263
4.4268498 5.0701246 -0.35274434 4286251263
4.4379005 5.0604548 -0.35274434 4286251263
4.4599385 5.0410423 -0.35274434 4286251263
4.4709258 5.0313005 -0.35274434 4286251263
4.4818916 5.0215344 -0.35274434 4286251263
4.4928365 5.0117445 -0.35274434 4286251263
4.5037594 5.0019307 -0.35274434 4286251263
4.5146613 4.9920936 -0.35274434 4286251263
4.5255418 4.9822321 -0.35274434 4286251263
4.5364003 4.9723468 -0.35274434 4286251263
4.5472374 4.9624386 -0.35274434 4286251263
4.5688467 4.9425502 -0.35274434 4286251263
4.5796189 4.9325705 -0.35274434 4286251263
4.6010981 4.9125414 -0.35274434 4286251263
4.6118045 4.902492 -0.35274434 4286251263
4.622489 4.8924184 -0.35274434 4286251263
4.6331515 4.8823223 -0.35274434 4286251263
4.6437922 4.8722024 -0.35274434 4286251263
4.6544104 4.8620596 -0.35274434 4286251263
4.6650066 4.8518944 -0.35274434 4286251263
4.675581 4.8417048 -0.35274434 4286251263
