# .PCD v0.7 - Point Cloud Data file format
VERSION 0.7
FIELDS x y z rgb
SIZE 4 4 4 4
TYPE F F F U
COUNT 1 1 1 1
WIDTH 1128
HEIGHT 1
VIEWPOINT 0 0 0 1 0 0 0
POINTS 1128
DATA ascii
0.97241497 1.0157979 0.10326586 4294962688
0.97462881 1.0136739 0.10326586 4294962688
0.97683799 1.0115452 0.10326586 4294962688
0.97904253 1.0094117 0.10326586 4294962688
0.98124236 1.0072733 0.10326586 4294962688
0.98343754 1.0051302 0.10326586 4294962688
0.98562801 1.0029821 0.10326586 4294962688
0.98781383 1.0008295 0.10326586 4294962688
0.989995 0.99867207 0.10326586 4294962688
0.99217141 0.99650985 0.10326586 4294962688
0.99434316 0.99434298 0.10326586 4294962688
0.99651003 0.99217117 0.10326586 4294962688
0.99867225 0.98999476 0.10326586 4294962688
1.0008297 0.98781365 0.10326586 4294962688
1.0029824 0.98562783 0.10326586 4294962688
1.0051303 0.98343742 0.10326586 4294962688
1.0072734 0.98124218 0.10326586 4294962688
1.0094118 0.97904229 0.10326586 4294962688
1.0115454 0.97683775 0.10326586 4294962688
1.013674 0.97462869 0.10326586 4294962688
1.015798 0.97241485 0.10326586 4294962688
1.0179169 0.97019643 0.10326586 4294962688
1.0200312 0.96797335 0.10326586 4294962688
1.0221405 0.96574575 0.10326586 4294962688
1.0242451 0.96351337 0.10326586 4294962688
1.0263447 0.96127659 0.10326586 4294962688
1.0284395 0.95903516 0.10326586 4294962688
1.0305293 0.9567892 0.10326586 4294962688
1.0326142 0.95453864 0.10326586 4294962688
1.0346942 0.9522835 0.10326586 4294962688
1.0367694 0.95002389 0.10326586 4294962688
1.0388395 0.94775975 0.10326586 4294962688
1.0409048 0.94549108 0.10326586 4294962688
1.0429649 0.94321799 0.10326586 4294962688
1.0450203 0.94094026 0.10326586 4294962688
1.0470706 0.93865824 0.10326586 4294962688
1.0491159 0.93637174 0.10326586 4294962688
1.0511563 0.9340806 0.10326586 4294962688
1.0531917 0.93178499 0.10326586 4294962688
1.055222 0.9294852 0.10326586 4294962688
1.0572474 0.92718089 0.10326586 4294962688
1.0592675 0.92487204 0.10326586 4294962688
1.0612828 0.92255896 0.10326586 4294962688
1.063293 0.9202413 0.10326586 4294962688
1.065298 0.91791934 0.10326586 4294962688
1.0672982 0.91559321 0.10326586 4294962688
1.0692931 0.91326249 0.10326586 4294962688
1.071283 0.91092747 0.10326586 4294962688
1.0732678 0.90858805 0.10326586 4294962688
1.0752475 0.90624452 0.10326586 4294962688
1.077222 0.90389639 0.10326586 4294962688
1.0791914 0.90154421 0.10326586 4294962688
1.0811558 0.89918768 0.10326586 4294962688
1.083115 0.89682662 0.10326586 4294962688
1.0850689 0.89446163 0.10326586 4294962688
1.0870178 0.89209229 0.10326586 4294962688
1.0889614 0.88971865 0.10326586 4294962688
1.0908998 0.88734078 0.10326586 4294962688
1.0928332 0.88495862 0.10326586 4294962688
-3.1402054 5.665081 0.40751046 4283498751
-3.1030602 5.6855125 0.40751046 4283498751
-3.0573139 5.6308727 0.40311515 4282646783
-2.9786201 5.5145931 0.39432448 4281204991
-2.994925 5.5738273 0.39809191 4281794815
-3.0361729 5.7102103 0.40688258 4283498751
-2.8370585 5.3639307 0.38176635 4278976767
-2.9508178 5.608582 0.39871979 4282056959
-2.868156 5.5391488 0.39244077 4280942847
-2.8469253 5.527648 0.39118496 4280680703
-2.8182483 5.5311241 0.39055702 4280418559
-2.783617 5.4927483 0.38741753 4279828735
-2.7596235 5.5048418 0.38741753 4279828735
-2.7876863 5.5912347 0.39306867 4280942847
-2.6690731 5.38271 0.37799892 4278190335
-2.6573238 5.3885198 0.37799892 4278190335
-2.6235881 5.3495016 0.37485939 4278192383
-2.7300375 5.5974073 0.39181283 4280680703
-2.6263547 5.4147768 0.37862685 4278452479
-2.5918331 5.4645414 0.38051054 4278714623
-2.5799048 5.4701824 0.38051054 4278714623
-2.5320714 5.4924879 0.38051054 4278714623
-2.4840441 5.5143752 0.38051054 4278714623
-2.317883 5.2060518 0.35853389 4278203391
-2.2951455 5.216116 0.35853389 4278203391
-2.1339388 5.6697397 0.38113847 4278714623
-1.9950985 5.4445019 0.36481291 4278199039
-2.0344176 5.5895166 0.37423152 4278192383
-2.0222178 5.5939417 0.37423152 4278192383
-1.952677 5.4386559 0.3635571 4278200063
-1.9408069 5.442903 0.3635571 4278200063
-1.9289275 5.4471245 0.3635571 4278200063
-1.9051418 5.4554896 0.3635571 4278200063
-1.8932352 5.4596329 0.3635571 4278200063
-1.8455193 5.4759464 0.3635571 4278200063
-1.8335687 5.4799595 0.3635571 4278200063
-1.8216088 5.4839463 0.3635571 4278200063
-1.80964 5.4879074 0.3635571 4278200063
-1.7976632 5.4918432 0.3635571 4278200063
-1.7856777 5.4957514 0.3635571 4278200063
-1.7736834 5.4996343 0.3635571 4278200063
-1.7616807 5.5034904 0.3635571 4278200063
-1.74967 5.5073209 0.3635571 4278200063
-1.7256234 5.5149026 0.3635571 4278200063
-1.7135872 5.5186539 0.3635571 4278200063
-1.7015436 5.5223799 0.3635571 4278200063
-1.6719836 5.4688134 0.35978967 4278202111
-1.6600488 5.4724479 0.35978967 4278202111
-1.6481056 5.4760571 0.35978967 4278202111
-1.6361551 5.4796391 0.35978967 4278202111
-1.6241964 5.4831958 0.35978967 4278202111
-1.6122299 5.4867263 0.35978967 4278202111
-1.6002558 5.490231 0.35978967 4278202111
-1.5882744 5.4937086 0.35978967 4278202111
-1.5762852 5.4971609 0.35978967 4278202111
-1.5642884 5.500587 0.35978967 4278202111
-1.5522844 5.5039859 0.35978967 4278202111
-1.540273 5.50736 0.35978967 4278202111
-1.5162277 5.5140285 0.35978967 4278202111
-1.4921541 5.5205917 0.35978967 4278202111
-1.4801064 5.5238338 0.35978967 4278202111
-1.4680518 5.5270495 0.35978967 4278202111
-1.4559903 5.5302396 0.35978967 4278202111
-1.4439217 5.5334024 0.35978967 4278202111
-1.4318465 5.5365391 0.35978967 4278202111
-1.4197637 5.53965 0.35978967 4278202111
-1.4076748 5.5427341 0.35978967 4278202111
-1.3955791 5.5457926 0.35978967 4278202111
-1.3448459 5.3938823 0.34974322 4278209791
-1.333075 5.3968039 0.34974322 4278209791
-1.321298 5.3996992 0.34974322 4278209791
-1.3095142 5.4025693 0.34974322 4278209791
-1.2977247 5.4054136 0.34974322 4278209791
-1.2859288 5.4082308 0.34974322 4278209791
-1.2741266 5.4110241 0.34974322 4278209791
-1.262319 5.4137912 0.34974322 4278209791
-1.2505046 5.416532 0.34974322 4278209791
-1.2386849 5.4192472 0.34974322 4278209791
-1.2268586 5.421937 0.34974322 4278209791
-1.215027 5.4246011 0.34974322 4278209791
-1.2031894 5.4272385 0.34974322 4278209791
-1.1913459 5.4298506 0.34974322 4278209791
-1.1794975 5.4324365 0.34974322 4278209791
-1.1676428 5.4349966 0.34974322 4278209791
-1.1557826 5.4375315 0.34974322 4278209791
-1.1439168 5.4400401 0.34974322 4278209791
-1.132046 5.4425225 0.34974322 4278209791
-1.1201696 5.4449792 0.34974322 4278209791
-1.1082879 5.4474106 0.34974322 4278209791
-1.0964009 5.4498153 0.34974322 4278209791
-1.0845085 5.4521942 0.34974322 4278209791
-1.0726111 5.4545474 0.34974322 4278209791
-1.0607085 5.4568748 0.34974322 4278209791
-1.0488011 5.4591751 0.34974322 4278209791
-1.0368885 5.4614506 0.34974322 4278209791
-1.024971 5.4636998 0.34974322 4278209791
-1.0130488 5.4659228 0.34974322 4278209791
-1.0011215 5.4681201 0.34974322 4278209791
-0.98918962 5.4702911 0.34974322 4278209791
-0.97725284 5.472436 0.34974322 4278209791
-0.96531165 5.4745555 0.34974322 4278209791
-0.95336568 5.4766479 0.34974322 4278209791
-0.94141507 5.4787149 0.34974322 4278209791
-0.92946017 5.4807563 0.34974322 4278209791
-0.91750085 5.4827709 0.34974322 4278209791
-0.90553713 5.4847593 0.34974322 4278209791
-0.89356911 5.486722 0.34974322 4278209791
-0.8815968 5.4886584 0.34974322 4278209791
-0.86962008 5.4905682 0.34974322 4278209791
-0.85763967 5.4924521 0.34974322 4278209791
-0.84565508 5.4943109 0.34974322 4278209791
-0.83366621 5.4961424 0.34974322 4278209791
-0.82167339 5.4979482 0.34974322 4278209791
-0.809677 5.4997277 0.34974322 4278209791
-0.79767668 5.5014806 0.34974322 4278209791
-0.78567243 5.5032082 0.34974322 4278209791
-0.77366436 5.504909 0.34974322 4278209791
-0.76165283 5.5065842 0.34974322 4278209791
-0.74963713 5.5082321 0.34974322 4278209791
-0.73761833 5.5098548 0.34974322 4278209791
-0.72559595 5.5114508 0.34974322 4278209791
-0.71357024 5.5130205 0.34974322 4278209791
-0.70154107 5.514564 0.34974322 4278209791
-0.68950832 5.5160818 0.34974322 4278209791
-0.67747235 5.5175729 0.34974322 4278209791
-0.66543341 5.5190377 0.34974322 4278209791
-0.65339124 5.5204763 0.34974322 4278209791
-0.64134574 5.5218887 0.34974322 4278209791
-0.62929749 5.5232749 0.34974322 4278209791
-0.61724591 5.5246348 0.34974322 4278209791
-0.60519147 5.5259686 0.34974322 4278209791
-0.5931344 5.5272756 0.34974322 4278209791
-0.58107436 5.5285559 0.34974322 4278209791
-0.56901145 5.5298109 0.34974322 4278209791
-0.55694616 5.5310392 0.34974322 4278209791
-0.54487789 5.5322409 0.34974322 4278209791
-0.53280699 5.5334163 0.34974322 4278209791
-0.52073371 5.5345659 0.34974322 4278209791
-0.50865817 5.5356884 0.34974322 4278209791
-0.49657989 5.5367851 0.34974322 4278209791
-0.48449922 5.5378551 0.34974322 4278209791
-0.47241652 5.5388994 0.34974322 4278209791
-0.4603312 5.5399165 0.34974322 4278209791
-0.44824386 5.5409079 0.34974322 4278209791
-0.43615437 5.5418725 0.34974322 4278209791
-0.42406297 5.5428109 0.34974322 4278209791
-0.41196942 5.5437226 0.34974322 4278209791
-0.39987397 5.5446081 0.34974322 4278209791
-0.38777637 5.5454674 0.34974322 4278209791
-0.37567735 5.5463004 0.34974322 4278209791
-0.36357605 5.5471067 0.34974322 4278209791
-0.35147357 5.5478864 0.34974322 4278209791
-0.33936918 5.5486403 0.34974322 4278209791
-0.32726312 5.5493674 0.34974322 4278209791
-0.31515527 5.5500684 0.34974322 4278209791
-0.30304623 5.5507426 0.34974322 4278209791
-0.29093575 5.5513906 0.34974322 4278209791
-0.27882385 5.552012 0.34974322 4278209791
-0.26671052 5.5526071 0.34974322 4278209791
-0.25459611 5.5531759 0.34974322 4278209791
-0.24248028 5.5537176 0.34974322 4278209791
-0.23036337 5.554234 0.34974322 4278209791
-0.21824527 5.5547233 0.34974322 4278209791
-0.20612633 5.5551858 0.34974322 4278209791
-0.19400609 5.5556226 0.34974322 4278209791
-0.18188524 5.5560327 0.34974322 4278209791
-0.16976357 5.556416 0.34974322 4278209791
-0.15764105 5.5567732 0.34974322 4278209791
-0.14551747 5.5571041 0.34974322 4278209791
-0.13339341 5.5574083 0.34974322 4278209791
-0.12126887 5.5576863 0.34974322 4278209791
-0.10914361 5.5579376 0.34974322 4278209791
-0.097017646 5.5581622 0.34974322 4278209791
-0.084891438 5.5583611 0.34974322 4278209791
-0.072764993 5.5585327 0.34974322 4278209791
-0.060637712 5.5586782 0.34974322 4278209791
-0.048510551 5.5587978 0.34974322 4278209791
-0.036382914 5.5588899 0.34974322 4278209791
-0.024255276 5.5589561 0.34974322 4278209791
-0.012127399 5.5589957 0.34974322 4278209791
3.5762787e-07 5.5590086 0.34974322 4278209791
0.012128234 5.5589957 0.34974322 4278209791
0.02425611 5.5589561 0.34974322 4278209791
0.036383629 5.5588899 0.34974322 4278209791
0.048511267 5.5587974 0.34974322 4278209791
0.060638666 5.5586786 0.34974322 4278209791
0.072765589 5.5585327 0.34974322 4278209791
0.084892154 5.5583606 0.34974322 4278209791
0.09701848 5.5581627 0.34974322 4278209791
0.10914421 5.5579376 0.34974322 4278209791
0.12126958 5.5576863 0.34974322 4278209791
0.13339424 5.5574083 0.34974322 4278209791
0.14551806 5.5571036 0.34974322 4278209791
0.15764165 5.5567737 0.34974322 4278209791
0.16976428 5.556416 0.34974322 4278209791
0.18188608 5.5560327 0.34974322 4278209791
0.19400668 5.5556221 0.34974322 4278209791
0.20612717 5.5551863 0.34974322 4278209791
0.21824586 5.5547228 0.34974322 4278209791
0.23036385 5.5542331 0.34974322 4278209791
0.24248087 5.5537176 0.34974322 4278209791
0.25459659 5.5531754 0.34974322 4278209791
0.26671112 5.5526071 0.34974322 4278209791
0.27882433 5.552012 0.34974322 4278209791
0.29093623 5.5513906 0.34974322 4278209791
0.30304694 5.5507426 0.34974322 4278209791
0.3151561 5.5500679 0.34974322 4278209791
0.32726371 5.5493674 0.34974322 4278209791
0.33936977 5.5486403 0.34974322 4278209791
0.35147405 5.5478868 0.34974322 4278209791
0.36357701 5.5471072 0.34974322 4278209791
0.37567806 5.5463004 0.34974322 4278209791
0.38777709 5.5454674 0.34974322 4278209791
0.39987469 5.5446086 0.34974322 4278209791
0.41197014 5.5437226 0.34974322 4278209791
0.42406368 5.5428109 0.34974322 4278209791
0.4361552 5.5418725 0.34974322 4278209791
0.44824457 5.5409079 0.34974322 4278209791
0.46033204 5.539917 0.34974322 4278209791
0.47241712 5.5388989 0.34974322 4278209791
0.48449993 5.5378551 0.34974322 4278209791
0.4965806 5.5367851 0.34974322 4278209791
0.50865865 5.5356884 0.34974322 4278209791
0.52073455 5.5345659 0.34974322 4278209791
0.53280771 5.5334167 0.34974322 4278209791
0.54487848 5.5322409 0.34974322 4278209791
0.55694664 5.5310383 0.34974322 4278209791
0.56901217 5.5298109 0.34974322 4278209791
0.58107507 5.5285563 0.34974322 4278209791
0.593135 5.5272756 0.34974322 4278209791
0.6051923 5.5259681 0.34974322 4278209791
0.61724663 5.5246344 0.34974322 4278209791
0.62929809 5.5232744 0.34974322 4278209791
0.64134645 5.5218887 0.34974322 4278209791
0.6533919 5.5204768 0.34974322 4278209791
0.66543406 5.5190377 0.34974322 4278209791
0.67747301 5.5175729 0.34974322 4278209791
0.68950903 5.5160818 0.34974322 4278209791
0.70154148 5.5145645 0.34974322 4278209791
0.71357065 5.5130205 0.34974322 4278209791
0.72559673 5.5114508 0.34974322 4278209791
0.73761904 5.5098548 0.34974322 4278209791
0.74963784 5.5082326 0.34974322 4278209791
0.76165313 5.5065837 0.34974322 4278209791
0.77366483 5.5049095 0.34974322 4278209791
0.78567284 5.5032082 0.34974322 4278209791
0.7976771 5.5014806 0.34974322 4278209791
0.8096776 5.4997272 0.34974322 4278209791
0.82167417 5.4979482 0.34974322 4278209791
0.83366698 5.4961424 0.34974322 4278209791
0.84565568 5.4943109 0.34974322 4278209791
0.85764033 5.4924526 0.34974322 4278209791
0.86962092 5.4905686 0.34974322 4278209791
0.8815974 5.488658 0.34974322 4278209791
0.89356977 5.4867215 0.34974322 4278209791
0.90553766 5.4847589 0.34974322 4278209791
0.91750145 5.4827704 0.34974322 4278209791
0.92946082 5.4807558 0.34974322 4278209791
0.94141585 5.4787149 0.34974322 4278209791
0.95336634 5.4766483 0.34974322 4278209791
0.96531224 5.4745555 0.34974322 4278209791
0.97725344 5.4724364 0.34974322 4278209791
0.9891901 5.4702911 0.34974322 4278209791
1.001122 5.4681201 0.34974322 4278209791
1.0130492 5.4659228 0.34974322 4278209791
1.0249717 5.4636998 0.34974322 4278209791
1.0368891 5.4614501 0.34974322 4278209791
1.0488017 5.4591756 0.34974322 4278209791
1.0607092 5.4568739 0.34974322 4278209791
1.0726118 5.4545469 0.34974322 4278209791
1.0845091 5.4521942 0.34974322 4278209791
1.0964017 5.4498153 0.34974322 4278209791
1.1082885 5.4474106 0.34974322 4278209791
1.1201704 5.4449792 0.34974322 4278209791
1.1320467 5.442523 0.34974322 4278209791
1.1439178 5.4400396 0.34974322 4278209791
1.1557833 5.437531 0.34974322 4278209791
1.1676435 5.4349971 0.34974322 4278209791
1.1794978 5.4324365 0.34974322 4278209791
1.1913468 5.4298501 0.34974322 4278209791
1.2031902 5.4272385 0.34974322 4278209791
1.101596 4.9181747 0.31709215 4278231807
0.84414715 3.6564019 0.23609236 4278255488
0.67535216 2.8964267 0.18711576 4278517504
0.66794479 2.836659 0.18334833 4279369472
0.66489714 2.7963569 0.18083671 4279631616
0.70144331 2.7874138 0.18083671 4279631616
0.70752287 2.7858772 0.18083671 4279631616
0.71359897 2.7843268 0.18083671 4279631616
0.71967173 2.7827632 0.18083671 4279631616
0.72574103 2.7811866 0.18083671 4279631616
0.73180687 2.7795966 0.18083671 4279631616
0.73786926 2.7779934 0.18083671 4279631616
0.74392825 2.7763772 0.18083671 4279631616
0.74998361 2.7747478 0.18083671 4279631616
0.81765193 2.9735329 0.1940227 4278255372
0.89614928 3.2314091 0.21097614 4278255419
1.3547955 4.8441691 0.31646422 4278232831
1.3816149 4.8988357 0.32023165 4278229503
1.4441692 5.0782027 0.33216184 4278221823
1.4717501 5.1326017 0.33592927 4278218495
1.4829444 5.1293788 0.33592927 4278218495
1.5330546 4.9372416 0.32525489 4278226175
0.9894768 3.1622581 0.20846452 4278255411
0.90333861 2.8650234 0.18899946 4278255360
0.89447755 2.8154867 0.18585995 4278779648
0.91288561 2.8095722 0.18585995 4278779648
0.91901296 2.807574 0.18585995 4278779648
0.92513597 2.8055625 0.18585995 4278779648
0.93125457 2.8035374 0.18585995 4278779648
0.93736869 2.8014989 0.18585995 4278779648
0.94347835 2.7994475 0.18585995 4278779648
0.95568424 2.7953038 0.18585995 4278779648
0.96178031 2.7932124 0.18585995 4278779648
0.9678719 2.7911074 0.18585995 4278779648
0.97395891 2.7889893 0.18585995 4278779648
0.98004115 2.7868578 0.18585995 4278779648
0.98611879 2.7847128 0.18585995 4278779648
0.99219173 2.7825549 0.18585995 4278779648
0.99825996 2.7803836 0.18585995 4278779648
1.0043235 2.7781992 0.18585995 4278779648
1.0164361 2.7737906 0.18585995 4278779648
1.0224851 2.7715666 0.18585995 4278779648
1.0285292 2.7693291 0.18585995 4278779648
1.0345685 2.7670786 0.18585995 4278779648
1.0406029 2.7648151 0.18585995 4278779648
1.0466324 2.7625382 0.18585995 4278779648
1.0526568 2.7602484 0.18585995 4278779648
1.0586762 2.7579453 0.18585995 4278779648
1.0646905 2.7556288 0.18585995 4278779648
1.0706999 2.7532997 0.18585995 4278779648
1.0827031 2.7486017 0.18585995 4278779648
1.0886971 2.746233 0.18585995 4278779648
1.0946858 2.7438512 0.18585995 4278779648
1.1006694 2.7414563 0.18585995 4278779648
1.1066476 2.7390485 0.18585995 4278779648
1.1126208 2.7366278 0.18585995 4278779648
1.1185886 2.7341943 0.18585995 4278779648
1.1245509 2.7317472 0.18585995 4278779648
1.1305081 2.7292871 0.18585995 4278779648
1.1364597 2.7268145 0.18585995 4278779648
1.142406 2.7243283 0.18585995 4278779648
1.1483467 2.7218297 0.18585995 4278779648
1.1542822 2.7193177 0.18585995 4278779648
1.160212 2.7167933 0.18585995 4278779648
1.1661364 2.7142556 0.18585995 4278779648
1.1720552 2.7117047 0.18585995 4278779648
1.1779685 2.7091415 0.18585995 4278779648
1.183876 2.7065651 0.18585995 4278779648
1.1897781 2.7039759 0.18585995 4278779648
1.1956744 2.7013736 0.18585995 4278779648
1.201565 2.6987586 0.18585995 4278779648
1.2074499 2.6961308 0.18585995 4278779648
1.2133291 2.6934903 0.18585995 4278779648
1.2192025 2.6908367 0.18585995 4278779648
1.22507 2.6881704 0.18585995 4278779648
1.2309318 2.6854913 0.18585995 4278779648
1.2367877 2.6827993 0.18585995 4278779648
1.2426378 2.6800947 0.18585995 4278779648
1.2543199 2.6746471 0.18585995 4278779648
1.2601522 2.6719043 0.18585995 4278779648
1.2659783 2.6691487 0.18585995 4278779648
1.4200491 2.9605546 0.2065808 4278255406
1.4265046 2.9574499 0.2065808 4278255406
1.4779019 2.9321032 0.2065808 4278255406
1.7234066 3.4006963 0.23985979 4278255496
1.4091245 2.7655618 0.19527851 4278255377
1.3878528 2.7091858 0.19151108 4278255368
1.3434932 2.6085529 0.18460414 4279041792
1.3491809 2.6056156 0.18460414 4279041792
1.1515784 1.3131232 0.10988341 4292214528
1.1544404 1.3106078 0.10988341 4292214528
1.157297 1.308086 0.10988341 4292214528
1.160148 1.3055581 0.10988341 4292214528
1.1629936 1.3030239 0.10988341 4292214528
1.1658336 1.3004836 0.10988341 4292214528
1.168668 1.2979369 0.10988341 4292214528
1.1714969 1.2953842 0.10988341 4292214528
1.1743202 1.2928255 0.10988341 4292214528
1.1771379 1.2902604 0.10988341 4292214528
1.17995 1.2876892 0.10988341 4292214528
1.1827564 1.285112 0.10988341 4292214528
1.1855572 1.2825285 0.10988341 4292214528
1.1883526 1.2799389 0.10988341 4292214528
1.1911421 1.2773433 0.10988341 4292214528
1.193926 1.2747415 0.10988341 4292214528
1.1967041 1.2721338 0.10988341 4292214528
1.1994767 1.26952 0.10988341 4292214528
1.2022436 1.2669001 0.10988341 4292214528
1.2050046 1.2642742 0.10988341 4292214528
1.2077599 1.2616423 0.10988341 4292214528
1.2105095 1.2590044 0.10988341 4292214528
1.2132535 1.2563605 0.10988341 4292214528
1.2159915 1.2537105 0.10988341 4292214528
1.2187238 1.2510548 0.10988341 4292214528
1.2214502 1.2483928 0.10988341 4292214528
1.2241708 1.2457252 0.10988341 4292214528
1.2268857 1.2430515 0.10988341 4292214528
1.2295947 1.2403719 0.10988341 4292214528
1.2322979 1.2376862 0.10988341 4292214528
1.2349951 1.234995 0.10988341 4292214528
1.2376865 1.2322977 0.10988341 4292214528
1.2403719 1.2295945 0.10988341 4292214528
1.2430516 1.2268854 0.10988341 4292214528
1.2457254 1.2241707 0.10988341 4292214528
1.2483931 1.22145 0.10988341 4292214528
1.2510549 1.2187237 0.10988341 4292214528
1.2537109 1.2159914 0.10988341 4292214528
1.2563607 1.2132531 0.10988341 4292214528
1.2590046 1.2105094 0.10988341 4292214528
1.2616426 1.2077599 0.10988341 4292214528
1.2642744 1.2050043 0.10988341 4292214528
1.2669003 1.2022433 0.10988341 4292214528
1.2695202 1.1994765 0.10988341 4292214528
1.2721341 1.196704 0.10988341 4292214528
1.2747418 1.1939259 0.10988341 4292214528
1.2773435 1.1911418 0.10988341 4292214528
1.2799392 1.1883525 0.10988341 4292214528
1.2825286 1.1855571 0.10988341 4292214528
1.2851121 1.1827562 0.10988341 4292214528
1.2876894 1.1799498 0.10988341 4292214528
1.2902606 1.1771376 0.10988341 4292214528
1.2928257 1.1743199 0.10988341 4292214528
1.2953845 1.1714966 0.10988341 4292214528
1.2979374 1.1686677 0.10988341 4292214528
1.3004838 1.1658335 0.10988341 4292214528
1.3030242 1.1629934 0.10988341 4292214528
1.3055583 1.1601478 0.10988341 4292214528
1.3080863 1.1572968 0.10988341 4292214528
1.3106079 1.1544403 0.10988341 4292214528
1.3131235 1.1515782 0.10988341 4292214528
1.3156327 1.1487106 0.10988341 4292214528
1.3181357 1.1458378 0.10988341 4292214528
1.3206325 1.1429592 0.10988341 4292214528
1.3231226 1.1400752 0.10988341 4292214528
1.3256068 1.1371859 0.10988341 4292214528
1.3280847 1.1342914 0.10988341 4292214528
1.3305562 1.1313912 0.10988341 4292214528
1.3330213 1.1284856 0.10988341 4292214528
1.3354801 1.1255748 0.10988341 4292214528
1.3379325 1.1226585 0.10988341 4292214528
1.3403785 1.1197369 0.10988341 4292214528
1.3428183 1.11681 0.10988341 4292214528
1.3452516 1.1138778 0.10988341 4292214528
1.3476785 1.1109402 0.10988341 4292214528
1.3500988 1.1079974 0.10988341 4292214528
1.3525131 1.1050493 0.10988341 4292214528
1.3549207 1.102096 0.10988341 4292214528
1.3573219 1.0991374 0.10988341 4292214528
1.3597165 1.0961735 0.10988341 4292214528
1.3621049 1.0932045 0.10988341 4292214528
1.3644865 1.0902302 0.10988341 4292214528
1.3668618 1.0872509 0.10988341 4292214528
1.3692305 1.0842662 0.10988341 4292214528
1.3715929 1.0812763 0.10988341 4292214528
1.3739486 1.0782814 0.10988341 4292214528
1.3762977 1.0752815 0.10988341 4292214528
1.3786404 1.0722761 0.10988341 4292214528
1.3809764 1.069266 0.10988341 4292214528
1.3833059 1.0662507 0.10988341 4292214528
1.3856289 1.0632302 0.10988341 4292214528
1.3879449 1.0602046 0.10988341 4292214528
1.3902547 1.0571741 0.10988341 4292214528
1.3925579 1.0541384 0.10988341 4292214528
1.3948543 1.0510979 0.10988341 4292214528
1.3971441 1.0480523 0.10988341 4292214528
-6.9133449 5.1624403 0.45218271 4294901824
-7.0378699 5.2793827 0.46107981 4294901794
-6.9784842 5.2586651 0.45793965 4294901802
-6.9032965 5.2256594 0.45375276 4294901819
-6.8804297 5.2557306 0.45375276 4294901819
-6.868947 5.2707291 0.45375276 4294901819
-6.8574314 5.2857018 0.45375276 4294901819
-6.799366 5.360189 0.45375276 4294901819
-6.7759137 5.3898058 0.45375276 4294901819
-6.7641392 5.4045753 0.45375276 4294901819
-6.7523317 5.4193196 0.45375276 4294901819
-6.7404923 5.4340382 0.45375276 4294901819
-6.728621 5.4487305 0.45375276 4294901819
-6.7167182 5.463397 0.45375276 4294901819
-6.704782 5.4780378 0.45375276 4294901819
-6.6567235 5.5363388 0.45375276 4294901819
-6.6325026 5.5653315 0.45375276 4294901819
-6.6203451 5.5797882 0.45375276 4294901819
-6.6081567 5.5942183 0.45375276 4294901819
-6.5959363 5.6086216 0.45375276 4294901819
-6.5836844 5.6229982 0.45375276 4294901819
-6.5590878 5.6516714 0.45375276 4294901819
-6.5343642 5.6802368 0.45375276 4294901819
-6.4970474 5.7228823 0.45375276 4294901819
-6.4845467 5.7370429 0.45375276 4294901819
-6.4720154 5.7511759 0.45375276 4294901819
-6.4342356 5.7934122 0.45375276 4294901819
-6.4215808 5.807436 0.45375276 4294901819
-6.408896 5.8214316 0.45375276 4294901819
-6.3961802 5.8353996 0.45375276 4294901819
-6.3450136 5.8909941 0.45375276 4294901819
-6.293364 5.9461393 0.45375276 4294901819
-6.2803769 5.9598556 0.45375276 4294901819
-6.2673593 5.9735432 0.45375276 4294901819
-6.254312 5.9872017 0.45375276 4294901819
-6.2149925 6.0280075 0.45375276 4294901819
-4.6200972 7.3224115 0.45375276 4294901819
-4.6041117 7.3324738 0.45375276 4294901819
-4.5881033 7.3425007 0.45375276 4294901819
-4.5560217 7.3624506 0.45375276 4294901819
-4.5238533 7.3822594 0.45375276 4294901819
-3.2831087 5.5184097 0.3365202 4282908927
-3.2252767 5.4482193 0.33181 4281794815
-3.1895494 5.4692111 0.33181 4281794815
-3.1776104 5.4761572 0.33181 4281794815
-3.1536856 5.4899702 0.33181 4281794815
-3.144845 5.5869002 0.33599687 4282646783
-3.0523915 5.4784384 0.32866985 4281204991
-3.0284579 5.4917045 0.32866985 4281204991
-3.0212727 5.5070534 0.32919317 4281204991
-3.0905821 5.6626492 0.3380903 4283171071
-2.9163799 5.4276476 0.32291287 4279828735
-2.8386269 5.3106971 0.31558585 4278452479
-2.8154273 5.3230324 0.31558585 4278452479
-2.8782039 5.4705658 0.32395959 4280090879
-2.8407238 5.6358929 0.33076328 4281532671
-2.7537229 5.5231147 0.32343623 4280090879
-2.7175152 5.5410194 0.32343623 4280090879
-2.70542 5.5469351 0.32343623 4280090879
-2.6933122 5.552824 0.32343623 4280090879
-2.6690578 5.5645227 0.32343623 4280090879
-2.5837708 5.6046333 0.32343623 4280090879
-1.9859955 5.4196601 0.30250186 4278200063
-1.9878289 5.4615164 0.30459529 4278199039
-1.9894893 5.503406 0.30668873 4278196735
-1.9447006 5.5299778 0.30721208 4278196735
-1.6876501 5.3525434 0.29412809 4278207743
-1.4170905 5.1098647 0.27790394 4278220799
-1.431555 5.2508845 0.28523096 4278214143
1.1779796 5.3135209 0.28523096 4278214143
1.082617 4.8334413 0.25958636 4278236159
1.0799359 4.7726278 0.25644621 4278238207
0.87227625 3.8162081 0.20515697 4278255513
0.68291414 2.9580252 0.15910131 4278255364
0.64628053 2.7717452 0.14915748 4279893760
0.6385929 2.7120061 0.14601733 4280745728
0.65836835 2.768899 0.14915748 4279893760
0.70057559 2.7585223 0.14915748 4279893760
0.70659208 2.7569871 0.14915748 4279893760
0.71260512 2.755439 0.14915748 4279893760
0.71861494 2.7538779 0.14915748 4279893760
0.72462124 2.7523036 0.14915748 4279893760
0.73062414 2.750716 0.14915748 4279893760
0.73662347 2.7491155 0.14915748 4279893760
0.74261934 2.7475019 0.14915748 4279893760
0.79589248 2.9192989 0.15857795 4278255364
0.83403218 3.0331025 0.16485828 4278255385
0.96340859 3.4739385 0.18893281 4278255462
1.3690623 4.8951812 0.26639003 4278230527
1.3960029 4.9498515 0.26953021 4278227455
1.3931402 4.898767 0.26691338 4278229503
1.4726392 5.1357017 0.27999738 4278218495
1.5062114 5.1675763 0.28209081 4278217471
1.5145638 5.1130805 0.27947402 4278219775
1.5479962 5.1030583 0.27947402 4278219775
1.5328481 5.0137191 0.27476379 4278223103
1.5437828 5.0103631 0.27476379 4278223103
1.5724779 5.0642056 0.27790394 4278220799
1.058664 3.3833728 0.18579265 4278255453
0.90989006 2.885802 0.15857795 4278255364
0.90408885 2.8457398 0.15648451 4278517504
0.93507671 2.8357089 0.15648451 4278517504
0.94126105 2.8336623 0.15648451 4278517504
0.94744092 2.8316019 0.15648451 4278517504
0.95361626 2.8295281 0.15648451 4278517504
0.96595323 2.8253403 0.15648451 4278517504
0.97211492 2.8232262 0.15648451 4278517504
0.97827196 2.8210986 0.15648451 4278517504
0.98442423 2.8189576 0.15648451 4278517504
0.99057186 2.816803 0.15648451 4278517504
0.99671483 2.8146353 0.15648451 4278517504
1.002853 2.812454 0.15648451 4278517504
1.0089865 2.8102593 0.15648451 4278517504
1.0151151 2.8080516 0.15648451 4278517504
1.0273578 2.8035953 0.15648451 4278517504
1.0334718 2.8013475 0.15648451 4278517504
1.0456852 2.7968113 0.15648451 4278517504
1.0517844 2.7945237 0.15648451 4278517504
1.0578786 2.7922223 0.15648451 4278517504
1.0639678 2.7899077 0.15648451 4278517504
1.0700519 2.78758 0.15648451 4278517504
1.0761309 2.7852387 0.15648451 4278517504
1.0822048 2.7828844 0.15648451 4278517504
1.0882735 2.7805166 0.15648451 4278517504
1.094337 2.7781358 0.15648451 4278517504
1.1064485 2.7733345 0.15648451 4278517504
1.1124964 2.7709138 0.15648451 4278517504
1.1245761 2.7660334 0.15648451 4278517504
1.130608 2.7635734 0.15648451 4278517504
1.1366345 2.7611003 0.15648451 4278517504
1.1426556 2.7586143 0.15648451 4278517504
1.1486712 2.7561145 0.15648451 4278517504
1.1546814 2.753602 0.15648451 4278517504
1.160686 2.7510762 0.15648451 4278517504
1.1666851 2.7485375 0.15648451 4278517504
1.1726787 2.7459855 0.15648451 4278517504
1.1846492 2.7408426 0.15648451 4278517504
1.190626 2.7382517 0.15648451 4278517504
1.2025625 2.7330306 0.15648451 4278517504
1.2085221 2.7304003 0.15648451 4278517504
1.2144761 2.7277575 0.15648451 4278517504
1.2204242 2.7251012 0.15648451 4278517504
1.2263666 2.7224324 0.15648451 4278517504
1.232303 2.7197504 0.15648451 4278517504
1.2382337 2.7170553 0.15648451 4278517504
1.2441585 2.7143474 0.15648451 4278517504
1.2500772 2.7116265 0.15648451 4278517504
1.2677979 2.7033868 0.15648451 4278517504
1.2736927 2.7006145 0.15648451 4278517504
1.2854643 2.6950312 0.15648451 4278517504
1.4295444 2.980351 0.17323202 4278255411
1.5531826 3.2200801 0.18736273 4278255458
2.8267686 5.7321181 0.33495015 4282646783
2.8642247 5.7134948 0.33495015 4282646783
2.8766828 5.7072325 0.33495015 4282646783
2.8743556 5.6412392 0.33181 4281794815
1.3775467 2.6603971 0.15700787 4278255360
4.1357002 4.6745577 0.32709974 4280942847
4.1458883 4.6655235 0.32709974 4280942847
4.1560574 4.6564674 0.32709974 4280942847
4.1662064 4.6473899 0.32709974 4280942847
4.1763353 4.638289 0.32709974 4280942847
4.1864443 4.6291671 0.32709974 4280942847
4.1965337 4.6200228 0.32709974 4280942847
4.2066031 4.6108565 0.32709974 4280942847
4.2166524 4.6016679 0.32709974 4280942847
4.2266817 4.5924578 0.32709974 4280942847
4.2366905 4.5832253 0.32709974 4280942847
4.2466798 4.5739717 0.32709974 4280942847
4.2566485 4.5646958 0.32709974 4280942847
4.2665968 4.555398 0.32709974 4280942847
4.2765255 4.5460796 0.32709974 4280942847
4.2864327 4.5367384 0.32709974 4280942847
4.2963204 4.5273767 0.32709974 4280942847
4.3061876 4.5179925 0.32709974 4280942847
4.3160334 4.5085869 0.32709974 4280942847
4.32586 4.4991603 0.32709974 4280942847
4.3356652 4.4897122 0.32709974 4280942847
4.3454494 4.4802423 0.32709974 4280942847
4.3552136 4.4707513 0.32709974 4280942847
4.3649569 4.4612393 0.32709974 4280942847
4.3746796 4.4517055 0.32709974 4280942847
4.3843813 4.4421511 0.32709974 4280942847
4.394062 4.4325757 0.32709974 4280942847
4.4037218 4.4229779 0.32709974 4280942847
4.4133611 4.4133606 0.32709974 4280942847
4.4229789 4.4037213 0.32709974 4280942847
4.4325757 4.3940611 0.32709974 4280942847
4.4421515 4.3843799 0.32709974 4280942847
4.4517064 4.3746791 0.32709974 4280942847
4.4612398 4.3649564 0.32709974 4280942847
4.4707518 4.3552132 0.32709974 4280942847
4.4802432 4.345449 0.32709974 4280942847
4.4897127 4.3356643 0.32709974 4280942847
4.4991608 4.3258591 0.32709974 4280942847
4.5085878 4.3160329 0.32709974 4280942847
4.517993 4.3061862 0.32709974 4280942847
4.5273771 4.29632 0.32709974 4280942847
4.5367393 4.2864323 0.32709974 4280942847
4.5460801 4.2765245 0.32709974 4280942847
4.5553989 4.2665958 0.32709974 4280942847
4.5646968 4.2566481 0.32709974 4280942847
4.5739722 4.2466793 0.32709974 4280942847
4.5832262 4.23669 0.32709974 4280942847
4.5924582 4.2266808 0.32709974 4280942847
4.6016688 4.2166519 0.32709974 4280942847
4.610857 4.2066021 0.32709974 4280942847
4.6200233 4.1965327 0.32709974 4280942847
4.6291676 4.1864438 0.32709974 4280942847
4.6382904 4.1763344 0.32709974 4280942847
4.6473904 4.1662054 0.32709974 4280942847
4.6564684 4.1560564 0.32709974 4280942847
4.6655245 4.1458879 0.32709974 4280942847
4.6745582 4.1356993 0.32709974 4280942847
4.6835699 4.1254911 0.32709974 4280942847
4.6925592 4.1152635 0.32709974 4280942847
4.7015266 4.1050162 0.32709974 4280942847
4.7104707 4.094749 0.32709974 4280942847
4.7193933 4.0844631 0.32709974 4280942847
4.7282925 4.0741568 0.32709974 4280942847
4.7371693 4.0638318 0.32709974 4280942847
4.7460241 4.0534868 0.32709974 4280942847
4.7548566 4.0431237 0.32709974 4280942847
4.7636662 4.0327406 0.32709974 4280942847
4.7724524 4.0223379 0.32709974 4280942847
4.7812161 4.0119162 0.32709974 4280942847
4.789958 4.0014758 0.32709974 4280942847
4.798676 3.9910164 0.32709974 4280942847
4.8073721 3.9805374 0.32709974 4280942847
4.8160448 3.9700403 0.32709974 4280942847
4.8246946 3.9595237 0.32709974 4280942847
4.8333216 3.948988 0.32709974 4280942847
4.8419251 3.9384341 0.32709974 4280942847
4.8505063 3.9278617 0.32709974 4280942847
4.8590636 3.9172702 0.32709974 4280942847
4.8675985 3.9066601 0.32709974 4280942847
4.8761096 3.8960309 0.32709974 4280942847
4.8845978 3.8853841 0.32709974 4280942847
4.8930626 3.874718 0.32709974 4280942847
4.9015045 3.8640342 0.32709974 4280942847
4.9099226 3.8533313 0.32709974 4280942847
4.9183183 3.8426104 0.32709974 4280942847
4.9266896 3.8318715 0.32709974 4280942847
4.9350376 3.8211136 0.32709974 4280942847
4.9433622 3.8103385 0.32709974 4280942847
4.9516635 3.7995439 0.32709974 4280942847
4.9599409 3.7887325 0.32709974 4280942847
4.9681945 3.7779021 0.32709974 4280942847
4.9764252 3.7670543 0.32709974 4280942847
4.9846315 3.7561884 0.32709974 4280942847
4.9928145 3.7453051 0.32709974 4280942847
5.0009732 3.7344029 0.32709974 4280942847
5.009109 3.723484 0.32709974 4280942847
5.0172205 3.7125468 0.32709974 4280942847
5.0253077 3.7015924 0.32709974 4280942847
5.0333714 3.6906199 0.32709974 4280942847
5.0414114 3.6796298 0.32709974 4280942847
5.049427 3.6686227 0.32709974 4280942847
5.0574188 3.6575983 0.32709974 4280942847
5.0653863 3.6465557 0.32709974 4280942847
5.0733299 3.6354959 0.32709974 4280942847
5.0812492 3.6244192 0.32709974 4280942847
5.0891438 3.6133246 0.32709974 4280942847
5.0970154 3.6022134 0.32709974 4280942847
5.1048617 3.591085 0.32709974 4280942847
5.1126842 3.5799398 0.32709974 4280942847
5.1204824 3.5687766 0.32709974 4280942847
5.1282558 3.5575972 0.32709974 4280942847
5.1360054 3.5464003 0.32709974 4280942847
5.1437297 3.5351868 0.32709974 4280942847
5.1514306 3.5239563 0.32709974 4280942847
5.1591063 3.5127096 0.32709974 4280942847
5.1667571 3.5014465 0.32709974 4280942847
5.1743841 3.4901652 0.32709974 4280942847
5.1819863 3.4788682 0.32709974 4280942847
5.1895633 3.4675546 0.32709974 4280942847
5.1971164 3.4562249 0.32709974 4280942847
5.2046442 3.4448779 0.32709974 4280942847
5.2121472 3.4335151 0.32709974 4280942847
5.2196255 3.4221354 0.32709974 4280942847
5.2270789 3.4107409 0.32709974 4280942847
5.2345076 3.3993287 0.32709974 4280942847
5.2419114 3.3879004 0.32709974 4280942847
5.2492905 3.3764567 0.32709974 4280942847
5.2566442 3.3649957 0.32709974 4280942847
5.2639728 3.3535197 0.32709974 4280942847
5.2712765 3.3420272 0.32709974 4280942847
5.2785549 3.3305197 0.32709974 4280942847
5.285809 3.3189952 0.32709974 4280942847
5.2930369 3.3074555 0.32709974 4280942847
5.3002405 3.2959003 0.32709974 4280942847
5.3074179 3.2843294 0.32709974 4280942847
5.3145704 3.2727423 0.32709974 4280942847
5.3216982 3.2611399 0.32709974 4280942847
5.3288002 3.2495224 0.32709974 4280942847
5.3358765 3.2378888 0.32709974 4280942847
5.3429284 3.2262397 0.32709974 4280942847
5.3499537 3.2145758 0.32709974 4280942847
5.3569541 3.2028966 0.32709974 4280942847
5.3639288 3.1912017 0.32709974 4280942847
5.3708782 3.179492 0.32709974 4280942847
5.3778024 3.167767 0.32709974 4280942847
5.3847008 3.1560268 0.32709974 4280942847
5.391573 3.1442716 0.32709974 4280942847
5.3984199 3.1325018 0.32709974 4280942847
5.405241 3.1207166 0.32709974 4280942847
5.4120369 3.108917 0.32709974 4280942847
5.418807 3.0971022 0.32709974 4280942847
5.4255505 3.0852728 0.32709974 4280942847
5.4322686 3.0734289 0.32709974 4280942847
5.4389606 3.0615702 0.32709974 4280942847
5.4456267 3.0496969 0.32709974 4280942847
5.4522676 3.0378094 0.32709974 4280942847
5.4588823 3.0259073 0.32709974 4280942847
5.4654703 3.0139904 0.32709974 4280942847
5.4720325 3.0020595 0.32709974 4280942847
5.478569 2.9901142 0.32709974 4280942847
5.4850793 2.9781547 0.32709974 4280942847
5.4915643 2.9661813 0.32709974 4280942847
5.4980221 2.9541936 0.32709974 4280942847
5.5044537 2.9421909 0.32709974 4280942847
5.51086 2.9301758 0.32709974 4280942847
5.5172391 2.9181457 0.32709974 4280942847
5.5235925 2.9061022 0.32709974 4280942847
5.5299191 2.8940444 0.32709974 4280942847
5.5362206 2.881973 0.32709974 4280942847
5.5424948 2.8698883 0.32709974 4280942847
5.5487428 2.8577895 0.32709974 4280942847
5.5549641 2.8456771 0.32709974 4280942847
5.5611591 2.8335514 0.32709974 4280942847
5.5673275 2.8214121 0.32709974 4280942847
5.5734696 2.8092597 0.32709974 4280942847
5.5795851 2.7970929 0.32709974 4280942847
5.5856748 2.784914 0.32709974 4280942847
5.5917368 2.7727213 0.32709974 4280942847
5.5977731 2.7605152 0.32709974 4280942847
5.6037817 2.7482963 0.32709974 4280942847
5.6097641 2.7360647 0.32709974 4280942847
5.6157203 2.7238193 0.32709974 4280942847
5.6216497 2.711561 0.32709974 4280942847
5.6275516 2.6992903 0.32709974 4280942847
5.6334276 2.6870067 0.32709974 4280942847
5.6392756 2.6747098 0.32709974 4280942847
5.6450977 2.6624002 0.32709974 4280942847
5.6508927 2.6500783 0.32709974 4280942847
5.656661 2.6377439 0.32709974 4280942847
5.6624022 2.6253965 0.32709974 4280942847
5.6681161 2.6130366 0.32709974 4280942847
5.6738043 2.6006646 0.32709974 4280942847
5.6794634 2.5882807 0.32709974 4280942847
5.6850972 2.5758834 0.32709974 4280942847
5.6907034 2.5634747 0.32709974 4280942847
5.6962824 2.551053 0.32709974 4280942847
5.7018347 2.5386195 0.32709974 4280942847
5.7073588 2.5261741 0.32709974 4280942847
5.7128568 2.5137165 0.32709974 4280942847
5.7183275 2.5012474 0.32709974 4280942847
5.7237701 2.4887655 0.32709974 4280942847
5.7291861 2.4762723 0.32709974 4280942847
5.7345757 2.4637675 0.32709974 4280942847
5.7399368 2.4512508 0.32709974 4280942847
5.7452707 2.4387219 0.32709974 4280942847
5.7505779 2.4261823 0.32709974 4280942847
5.755857 2.4136305 0.32709974 4280942847
5.7611094 2.4010675 0.32709974 4280942847
5.7663341 2.3884933 0.32709974 4280942847
5.7715311 2.3759069 0.32709974 4280942847
5.7767005 2.3633099 0.32709974 4280942847
5.7818427 2.3507018 0.32709974 4280942847
5.7869577 2.3380818 0.32709974 4280942847
5.7920446 2.3254509 0.32709974 4280942847
5.7971039 2.3128095 0.32709974 4280942847
5.8021359 2.3001564 0.32709974 4280942847
5.8071404 2.2874928 0.32709974 4280942847
5.8121176 2.2748182 0.32709974 4280942847
5.8170662 2.2621326 0.32709974 4280942847
5.8219876 2.2494366 0.32709974 4280942847
5.8268814 2.2367296 0.32709974 4280942847
5.8317471 2.2240119 0.32709974 4280942847
5.836585 2.2112837 0.32709974 4280942847
5.8413954 2.198545 0.32709974 4280942847
5.8461781 2.1857958 0.32709974 4280942847
5.8509331 2.1730366 0.32709974 4280942847
5.8556595 2.1602664 0.32709974 4280942847
5.8603582 2.1474862 0.32709974 4280942847
5.8650303 2.134696 0.32709974 4280942847
5.8696728 2.1218951 0.32709974 4280942847
5.8742886 2.1090846 0.32709974 4280942847
5.8788762 2.0962634 0.32709974 4280942847
5.8834357 2.0834332 0.32709974 4280942847
5.8879666 2.0705924 0.32709974 4280942847
5.8924699 2.0577419 0.32709974 4280942847
5.8969455 2.0448818 0.32709974 4280942847
5.9013925 2.0320115 0.32709974 4280942847
5.9058118 2.0191319 0.32709974 4280942847
5.9102025 2.0062428 0.32709974 4280942847
5.9145656 1.9933442 0.32709974 4280942847
5.9189 1.9804356 0.32709974 4280942847
5.9232068 1.9675181 0.32709974 4280942847
5.927485 1.9545907 0.32709974 4280942847
5.931735 1.9416542 0.32709974 4280942847
5.9359574 1.9287088 0.32709974 4280942847
5.9401507 1.9157537 0.32709974 4280942847
5.9443159 1.9027902 0.32709974 4280942847
-6.3814387 4.6790648 0.3316552 4294901947
-6.3403635 4.7345743 0.3316552 4294901947
-6.793581 5.0961318 0.35594308 4294901845
-7.029808 5.2973404 0.36892456 4294901794
-7.0182338 5.3126645 0.36892456 4294901794
-7.0066261 5.3279629 0.36892456 4294901794
-6.9833126 5.3584843 0.36892456 4294901794
-6.9716053 5.3737068 0.36892456 4294901794
-6.9244456 5.4343405 0.36892456 4294901794
-6.9125729 5.4494338 0.36892456 4294901794
-6.9006681 5.4645023 0.36892456 4294901794
-6.88873 5.4795437 0.36892456 4294901794
-6.8647561 5.5095491 0.36892456 4294901794
-6.8527193 5.5245128 0.36892456 4294901794
-6.8406501 5.5394497 0.36892456 4294901794
-6.8285494 5.5543604 0.36892456 4294901794
-6.7920499 5.5989342 0.36892456 4294901794
-6.7798185 5.613739 0.36892456 4294901794
-6.7675552 5.6285172 0.36892456 4294901794
-6.7305722 5.6726894 0.36892456 4294901794
-6.7181807 5.6873598 0.36892456 4294901794
-6.7057562 5.7020025 0.36892456 4294901794
-6.6933012 5.7166195 0.36892456 4294901794
-6.6682935 5.7457695 0.36892456 4294901794
-6.6557422 5.7603035 0.36892456 4294901794
-6.6431599 5.7748108 0.36892456 4294901794
-6.6305447 5.78929 0.36892456 4294901794
-6.5925121 5.8325624 0.36892456 4294901794
-6.579772 5.8469315 0.36892456 4294901794
-6.5670004 5.8612723 0.36892456 4294901794
-5.7060943 5.1152935 0.3211863 4294901990
-5.6724925 5.1525297 0.3211863 4294901990
-5.6612382 5.1648932 0.3211863 4294901990
-5.5587416 5.2750492 0.3211863 4294901990
-5.0527468 5.7615533 0.3211863 4294901990
-4.9386516 5.8596468 0.3211863 4294901990
-4.7790055 5.7716961 0.31406742 4294902015
-4.7664022 5.7821083 0.31406742 4294902015
-4.7537761 5.7924929 0.31406742 4294902015
-4.7030463 5.8337564 0.31406742 4294902015
-4.6262827 5.8948183 0.31406742 4294902015
-4.0674891 6.2934008 0.31406742 4294902015
-3.4375792 5.344317 0.26632917 4282056959
-3.414228 5.3592653 0.26632917 4282056959
-3.4654517 5.4924088 0.27219176 4283760895
-3.2621922 5.195343 0.25711653 4279566591
-3.4136014 5.4895191 0.27093548 4283171071
-3.4173896 5.5224409 0.27219176 4283760895
-3.1583431 5.1539483 0.25334772 4278714623
-3.2602215 5.3726792 0.26339787 4281204991
-3.2846441 5.4396496 0.26632917 4282056959
-3.1173172 5.2138195 0.25460398 4278976767
-3.1352553 5.2961531 0.25795403 4279828735
-3.2200413 5.4665465 0.26591042 4282056959
-3.1357589 5.3769751 0.26088533 4280680703
-3.0589695 5.352088 0.25837281 4279828735
-2.9732032 5.2284713 0.25209147 4278190335
-3.1022902 5.5113001 0.26507291 4281794815
-2.9096279 5.1955152 0.24957891 4278192383
-2.9858186 5.358953 0.25711653 4279566591
-2.9843202 5.4396982 0.26004782 4280418559
-2.7857702 5.1041641 0.24371633 4278199039
-3.5278778 6.4975429 0.30987987 4293787903
-2.7788012 5.1987715 0.24706638 4278194687
-2.7307594 5.1903205 0.24581011 4278196735
-2.523253 5.1166511 0.23911001 4278203391
-2.5623519 5.3420582 0.24832264 4278193407
-2.0842249 5.0629783 0.2294786 4278213119
-2.0264001 5.5674896 0.24832264 4278193407
-1.4703463 5.0038686 0.21859092 4278225151
-1.3711007 5.2078056 0.22570978 4278217471
-1.2291179 4.975944 0.21482213 4278228479
-1.1354094 4.9674177 0.21356584 4278229503
-0.67350912 4.8693266 0.20602824 4278238207
0.98318273 4.999774 0.21356584 4278229503
1.0747976 4.9502163 0.21230958 4278231807
1.1309867 5.1015491 0.21900968 4278224127
1.0694439 4.7262611 0.20309693 4278240511
0.67901957 2.9707103 0.12772076 4278255368
0.64054835 2.7745187 0.11934562 4279893760
0.62618095 2.6855428 0.11557681 4281007872
0.63661832 2.7036207 0.11641432 4280745728
0.66607183 2.6965153 0.11641432 4280745728
0.67195308 2.6950557 0.11641432 4280745728
0.6895777 2.6906002 0.11641432 4280745728
0.69544601 2.6890893 0.11641432 4280745728
0.70131105 2.687566 0.11641432 4280745728
0.70717275 2.6860294 0.11641432 4280745728
0.71303105 2.6844802 0.11641432 4280745728
0.71888602 2.6829181 0.11641432 4280745728
0.72473752 2.6813436 0.11641432 4280745728
0.82256573 3.0171356 0.13107081 4278255381
0.88742471 3.2272737 0.14028345 4278255419
1.0119452 3.6489558 0.15870874 4278255492
1.3670475 4.8879776 0.21272834 4278230527
1.4211006 5.0388412 0.21942843 4278224127
1.4539545 5.1126108 0.2227785 4278220799
1.5009062 5.2342811 0.22822233 4278214143
1.5237308 5.2276816 0.22822233 4278214143
1.5579131 5.2175975 0.22822233 4278214143
1.5686592 5.1308517 0.22487228 4278218495
1.5097144 4.8248796 0.21189082 4278231807
0.97042799 3.0778036 0.13525838 4278255398
0.91966158 2.8947568 0.12730199 4278255364
0.91379088 2.8546813 0.12562697 4278255360
0.93866754 2.8465981 0.12562697 4278255360
0.94487566 2.8445437 0.12562697 4278255360
0.95107919 2.8424754 0.12562697 4278255360
0.95727825 2.8403938 0.12562697 4278255360
0.96966267 2.83619 0.12562697 4278255360
0.97584796 2.8340676 0.12562697 4278255360
0.98202854 2.8319318 0.12562697 4278255360
0.9882046 2.8297825 0.12562697 4278255360
1.0005424 2.8254442 0.12562697 4278255360
1.0067041 2.8232541 0.12562697 4278255360
1.0128611 2.8210514 0.12562697 4278255360
1.0190132 2.8188348 0.12562697 4278255360
1.0251607 2.8166053 0.12562697 4278255360
1.0374405 2.8121052 0.12562697 4278255360
1.0435731 2.809835 0.12562697 4278255360
1.0497007 2.8075516 0.12562697 4278255360
1.061941 2.8029449 0.12562697 4278255360
1.0680536 2.8006215 0.12562697 4278255360
1.0741611 2.7982845 0.12562697 4278255360
1.0802634 2.7959344 0.12562697 4278255360
1.0863606 2.793571 0.12562697 4278255360
1.0985394 2.7888041 0.12562697 4278255360
1.1046209 2.7864008 0.12562697 4278255360
1.1106974 2.7839844 0.12562697 4278255360
1.1228342 2.7791116 0.12562697 4278255360
1.1288946 2.7766554 0.12562697 4278255360
1.1349497 2.7741859 0.12562697 4278255360
1.1409993 2.7717032 0.12562697 4278255360
1.1470435 2.7692072 0.12562697 4278255360
1.1591154 2.7641761 0.12562697 4278255360
1.1651431 2.7616408 0.12562697 4278255360
1.1711655 2.7590923 0.12562697 4278255360
1.183193 2.7539558 0.12562697 4278255360
1.1891984 2.7513678 0.12562697 4278255360
1.1951982 2.7487671 0.12562697 4278255360
1.2011921 2.7461529 0.12562697 4278255360
1.2071805 2.7435257 0.12562697 4278255360
1.2191398 2.7382321 0.12562697 4278255360
1.2251108 2.7355659 0.12562697 4278255360
1.231076 2.7328868 0.12562697 4278255360
1.2429887 2.7274892 0.12562697 4278255360
1.2364469 2.6975234 0.1243707 4278779648
1.2423289 2.6948192 0.1243707 4278779648
1.2482052 2.6921024 0.1243707 4278779648
1.2540754 2.6893728 0.1243707 4278779648
1.2657981 2.6838751 0.1243707 4278779648
1.190299 2.509589 0.11641432 4280745728
1.1957712 2.5069859 0.11641432 4280745728
1.4410933 2.987695 0.13902718 4278255411
2.7077248 5.5825357 0.26004782 4280418559
2.7795563 5.6363811 0.26339787 4281204991
2.7785306 5.6034503 0.26214162 4280942847
2.9200325 5.8566785 0.27428555 4284285183
2.9328029 5.8502936 0.27428555 4284285183
2.9455593 5.8438811 0.27428555 4284285183
2.5427845 5.0175257 0.23575996 4278206719
2.9574218 5.804266 0.27302927 4283760895
2.7878644 5.4421067 0.25627902 4279304447
2.8226047 5.4804239 0.25837281 4279828735
2.8207717 5.4476357 0.25711653 4279566591
1.1330802 1.2920301 0.072026134 4292738816
1.1358962 1.289555 0.072026134 4292738816
-6.6951752 4.9995251 0.26259395 4294901870
-6.6602664 4.9961271 0.26165164 4294901875
-6.6493511 5.0106459 0.26165164 4294901875
-6.6384034 5.0251408 0.26165164 4294901875
-6.6274242 5.0396109 0.26165164 4294901875
-6.6164136 5.0540576 0.26165164 4294901875
-6.6053724 5.068481 0.26165164 4294901875
-6.5942984 5.0828791 0.26165164 4294901875
-6.5831938 5.0972538 0.26165164 4294901875
-6.5496922 5.1402311 0.26165164 4294901875
-6.5272007 5.1687608 0.26165164 4294901875
-6.5159087 5.1829882 0.26165164 4294901875
-6.4932318 5.2113695 0.26165164 4294901875
-6.4818473 5.2255235 0.26165164 4294901875
-6.4704313 5.2396526 0.26165164 4294901875
-6.4589849 5.2537565 0.26165164 4294901875
-6.4359999 5.2818885 0.26165164 4294901875
-6.4244609 5.2959175 0.26165164 4294901875
-6.4012918 5.3238983 0.26165164 4294901875
-6.3780012 5.351779 0.26165164 4294901875
-6.3663101 5.3656807 0.26165164 4294901875
-6.354589 5.3795567 0.26165164 4294901875
-6.3428378 5.3934078 0.26165164 4294901875
-6.3192444 5.421032 0.26165164 4294901875
-6.3074026 5.4348059 0.26165164 4294901875
-6.2836289 5.4622755 0.26165164 4294901875
-6.2597346 5.4896402 0.26165164 4294901875
-6.2477431 5.503284 0.26165164 4294901875
-6.2357221 5.516901 0.26165164 4294901875
-6.2236714 5.5304928 0.26165164 4294901875
-6.199481 5.5575957 0.26165164 4294901875
-5.6451135 5.0828834 0.23872179 4294901998
